0.371200,0.044530,0.725900,-0.991500,0.130300,0.000000
0.378000,0.082340,0.154300,0.991500,-0.130100,0.000000
0.370800,0.027650,-0.680500,0.991500,-0.130200,0.000000
0.360200,-0.053790,0.381100,0.991500,-0.130200,0.000000
0.338900,0.430600,-0.027210,-0.104300,0.994500,0.000000
0.354100,-0.099550,-0.535300,0.992000,-0.126100,0.000000
0.361300,-0.044860,-0.245000,0.991500,-0.130200,0.000000
0.361700,0.428400,-0.454400,0.292000,0.956400,0.000000
-0.417600,-0.254000,0.820000,0.802100,-0.001148,-0.597200
0.147600,0.181400,0.757500,0.198300,-0.207200,0.958000
0.350600,-0.126300,-0.598800,0.991500,-0.130100,0.000000
0.350600,-0.126300,-0.698600,0.991500,-0.130100,0.000000
0.333900,-0.253500,0.154300,0.991500,-0.130200,0.000000
0.340300,-0.190900,-0.263100,-0.991500,0.129900,0.000000
0.342300,-0.189900,0.199600,0.991500,-0.130100,0.000000
-0.388600,-0.022310,0.145200,0.131200,-0.991400,0.000000
0.333900,-0.253500,-0.045350,0.991500,-0.130200,0.000000
0.354800,0.430000,-0.009060,0.166600,0.986000,0.000000
0.379600,0.108100,0.063520,-0.991500,0.130200,0.000000
0.391100,0.271300,0.822000,-0.917800,0.000055,-0.397100
-0.421800,-0.362900,0.763300,-0.984400,0.000000,-0.176000
-0.070980,-0.006486,0.824600,0.000232,-0.028330,-0.999600
-0.286200,-0.034260,0.824500,0.004586,-0.003105,-1.000000
0.378000,0.082340,0.662300,0.991500,-0.130100,0.000000
0.376900,0.073420,0.689600,0.991500,-0.130200,0.000000
-0.396900,-0.303600,0.789300,0.018870,0.999700,-0.015500
0.318300,0.049970,-0.824500,0.000740,-0.000271,1.000000
0.360500,-0.036920,-0.716800,-0.991500,0.130200,0.000000
0.168600,-0.023420,-0.756000,0.000000,-0.573600,-0.819200
-0.152000,-0.026220,-0.751500,0.000000,-0.968400,-0.249300
0.332000,-0.254500,-0.544400,-0.991500,0.130200,0.000000
0.342300,-0.189900,0.426400,0.991500,-0.130100,0.000000
-0.188300,-0.305400,-0.823100,0.000000,-0.972600,-0.232500
0.347700,0.365600,-0.824900,-0.003730,0.007619,1.000000
0.256300,0.151700,-0.208700,0.978600,-0.205700,0.000000
0.350000,-0.135300,-0.245000,0.990700,-0.136300,0.003036
-0.418300,-0.035730,-0.544400,0.926200,-0.377100,0.000000
0.389100,0.180700,0.753100,-0.991500,0.130400,0.000000
0.151800,0.204600,-0.798400,0.655900,-0.754800,-0.000436
0.257800,0.172200,-0.190500,-0.979200,0.202800,0.000000
0.119900,-0.011360,0.036300,0.101500,0.994800,0.006214
0.346800,-0.142400,-0.598800,-0.991500,0.130000,0.000000
-0.417600,-0.291800,-0.117900,0.950400,0.310900,0.000023
0.229100,0.024630,0.045380,0.997000,-0.076940,0.000000
0.353400,-0.091600,0.571600,-0.991500,0.130200,0.000000
0.356100,-0.084460,-0.381100,0.991500,-0.130200,0.000000
0.356100,-0.084460,0.499000,0.991500,-0.130200,0.000000
-0.314500,-0.055200,0.824500,0.000000,0.000000,-1.000000
0.376900,0.073420,-0.426400,0.991500,-0.130200,0.000000
0.374200,0.066290,0.480900,-0.991500,0.130100,0.000000
0.338900,0.430600,-0.172400,-0.104300,0.994500,0.000000
0.297600,0.361800,0.118000,-0.978600,0.205700,0.000000
0.300900,0.377100,-0.263100,-0.977900,0.209100,0.000000
-0.190200,-0.047800,0.825200,0.005089,0.010990,-0.999900
0.359000,-0.062710,0.326600,0.991500,-0.130200,0.000000
0.356300,-0.069810,0.172400,-0.991500,0.130200,0.000000
0.221800,-0.005007,0.824600,-0.001343,-0.001028,-1.000000
0.310500,-0.301500,0.816200,-0.129700,0.942500,-0.307800
0.346800,-0.142400,-0.616900,-0.991500,0.130000,0.000000
0.391300,0.395900,-0.378000,-0.962000,-0.272700,0.011260
0.394500,0.244200,0.822700,0.996700,0.000000,0.081730
0.383300,0.226900,0.826400,0.002172,0.019250,0.999800
0.012700,0.131700,-0.789400,-0.292300,0.956300,-0.012540
0.306600,0.391000,0.217800,0.979200,-0.202800,0.000000
0.201900,-0.108800,-0.827400,0.000000,0.000000,-1.000000
0.374200,0.066290,-0.317500,-0.991500,0.130100,0.000000
0.283200,0.292900,0.344800,-0.978600,0.205800,0.000000
0.266000,0.211100,0.644200,-0.978600,0.205800,0.000000
0.291500,0.324300,0.580700,0.978600,-0.205800,0.000000
0.391800,0.187800,-0.707700,0.987800,-0.155800,0.000000
0.363100,0.161100,0.824500,0.000077,0.000050,-1.000000
-0.162000,-0.296300,0.821800,0.000000,0.567200,-0.823600
0.234100,0.046230,-0.499000,0.979300,-0.202500,0.000000
-0.390200,-0.442000,0.783500,0.562900,-0.558300,-0.609500
0.294600,0.337200,0.462700,0.967100,-0.254400,0.006120
0.183700,0.154300,0.827400,0.000000,0.000000,1.000000
0.251900,0.144100,-0.063490,-0.978600,0.205800,0.000000
-0.421900,-0.381000,0.000031,-0.999800,-0.009152,-0.016730
-0.015890,0.009105,0.756000,0.005622,-0.028210,0.999600
0.246900,0.120500,0.181500,-0.978600,0.205800,0.000000
-0.108200,0.088590,0.824500,0.000000,0.000139,-1.000000
-0.378800,-0.026510,-0.399200,0.000000,-1.000000,0.000000
0.300100,0.398000,0.815200,0.787400,-0.530700,-0.313600
-0.373900,-0.017910,0.590500,-0.153600,0.988100,-0.000005
-0.365800,-0.019290,0.517200,0.122100,-0.992500,0.000000
0.289400,0.309200,0.217800,0.979300,-0.202500,0.000000
-0.367500,-0.017090,-0.416600,-0.073400,0.997300,0.000000
0.279600,-0.046980,0.824500,-0.000083,-0.000002,-1.000000
0.192800,-0.026510,-0.544400,0.000000,-1.000000,0.000000
0.233900,0.305200,-0.823100,-0.834200,0.536200,-0.128400
0.259500,0.180700,-0.626000,-0.979100,0.203200,0.000000
-0.008337,0.123600,-0.789300,0.218000,-0.975900,0.000282
0.295800,0.353100,0.626000,-0.979100,0.203300,0.000000
0.276800,0.262600,-0.598800,-0.978700,0.205400,0.000000
0.269100,0.226000,0.099830,-0.979100,0.203200,0.000000
-0.008337,0.123600,0.798400,0.217900,-0.976000,0.000603
0.262700,0.143400,0.824500,0.000105,-0.000054,-1.000000
0.248300,0.126900,0.490000,-0.979200,0.203000,0.000000
0.270900,0.234700,0.254100,-0.978500,0.206100,0.000000
0.284500,0.299300,-0.254000,-0.979200,0.203000,0.000000
-0.097560,-0.005405,0.019720,0.002439,-0.937100,-0.349100
0.365200,0.172400,0.827400,-0.000037,0.000018,1.000000
-0.090830,-0.018120,0.824800,0.001308,-0.012610,-0.999900
0.319900,0.424400,0.771200,-0.473500,0.880800,0.004674
0.288500,0.309400,0.580700,0.979300,-0.202500,0.000000
0.251900,0.144100,0.744000,-0.978700,0.205000,0.004748
0.251900,0.144100,0.163300,-0.978600,0.205800,0.000000
0.139900,-0.183700,0.825400,-0.002653,0.007239,-1.000000
0.277100,0.255400,0.362900,0.978600,-0.205800,0.000000
0.295800,0.353100,0.662300,-0.979100,0.203300,0.000000
0.269400,0.218800,-0.508100,0.979300,-0.202500,0.000000
-0.052170,0.002586,0.750200,0.002964,0.663500,-0.748200
-0.269300,-0.007793,0.299400,-0.106200,0.994300,-0.000228
0.356900,0.330200,0.824500,0.000000,0.000000,-1.000000
0.324900,-0.292500,-0.263100,-0.856500,0.516100,0.000000
0.324900,-0.292500,-0.299400,-0.856500,0.516100,0.000000
0.324900,-0.292500,0.036310,-0.856500,0.516100,0.000000
0.157900,0.019170,-0.824700,-0.000201,0.042100,0.999100
0.319300,-0.305600,-0.589700,0.148500,-0.988900,0.000000
0.324900,-0.292500,0.018160,-0.856500,0.516100,0.000000
0.252200,0.137000,0.426400,0.979300,-0.202500,0.000000
0.278600,0.271200,-0.644200,-0.978600,0.205700,0.000000
0.005283,-0.016810,-0.751800,0.000000,0.639900,0.768400
-0.367600,-0.016770,0.663100,-0.133100,0.991100,-0.009477
-0.301800,0.107200,0.822700,-0.001532,-0.381800,-0.924300
0.389000,0.406600,0.201900,0.848400,0.529400,0.000000
0.384400,0.145000,-0.789300,-0.991600,0.129500,0.000002
0.335500,-0.227700,-0.199600,-0.991400,0.130600,0.000000
0.336500,-0.220000,0.672200,-0.991400,0.131100,0.000000
0.228200,0.008951,-0.471800,0.999700,-0.026260,-0.000000
-0.368300,-0.223600,0.824500,0.000000,0.000000,-1.000000
0.367700,0.000870,-0.816500,0.991200,-0.129200,0.027430
0.248100,0.112800,-0.199600,0.977700,-0.210000,0.000000
0.299500,0.370500,-0.217700,-0.978000,0.208500,0.000000
0.331100,0.426400,-0.798400,0.245100,-0.969100,-0.028960
0.061750,0.143900,0.822000,0.350500,-0.724500,-0.593400
-0.406000,-0.298100,-0.827300,-0.008967,-0.049030,-0.998800
0.269700,0.218800,0.751200,0.979300,-0.201400,0.017580
-0.430300,-0.038170,-0.435500,-0.872700,0.488300,0.000000
0.240000,0.074110,-0.399200,0.977800,-0.209400,0.000000
0.338000,0.427600,-0.653200,0.104500,-0.994500,0.000000
-0.086500,0.022960,0.824500,-0.000014,0.000107,-1.000000
0.213700,0.268400,-0.816400,0.702400,-0.565100,0.432800
-0.269300,-0.007793,-0.290300,-0.101000,0.994900,0.003261
0.281800,0.286500,0.290300,-0.977900,0.209000,0.000000
0.301800,0.368200,0.327400,0.978500,-0.206400,0.000000
0.293900,0.330500,0.272200,0.977700,-0.210000,0.000000
-0.259400,-0.009117,-0.643400,0.406400,-0.913700,0.000000
-0.421800,-0.208700,0.823000,-0.972300,0.000000,0.233500
0.366600,0.008916,0.362900,-0.991600,0.129400,0.000000
0.365600,0.001380,-0.218500,-0.991600,0.129600,0.000000
0.240500,0.090210,-0.508100,-0.978700,0.205400,0.000000
0.275200,0.255200,0.064280,-0.978700,0.205400,0.000000
0.392200,0.326700,-0.816300,-0.988200,0.000014,0.152900
-0.426900,-0.032370,0.653300,-0.854100,0.520200,0.000000
0.372400,0.053440,0.362900,-0.991000,0.134000,0.000000
0.238600,0.067550,-0.272200,0.977700,-0.210100,0.000000
0.209500,-0.065480,0.825000,-0.007017,-0.003459,-1.000000
0.346900,0.424400,-0.770300,-0.012380,-0.799500,0.600500
0.228400,0.032270,-0.426400,-0.981500,0.191300,0.000000
0.223600,-0.010850,0.653300,-0.922400,0.386300,0.000000
0.354500,-0.082670,0.072600,-0.991000,0.133900,0.000000
0.255100,0.159400,0.526200,-0.977900,0.209100,0.000000
0.248300,0.126900,0.317600,-0.979200,0.203000,0.000000
0.266000,0.211100,0.136100,-0.978600,0.205800,0.000000
0.245800,0.106600,0.290300,0.978600,-0.205700,0.000000
0.246900,0.120500,0.344800,-0.978600,0.205800,0.000000
-0.413300,-0.029440,-0.317500,0.633400,-0.773900,-0.000011
0.302200,0.383500,0.281300,-0.978600,0.205800,0.000000
0.245800,0.106600,0.725800,0.978600,-0.205700,0.000000
0.263500,0.190800,0.444600,0.979400,-0.202100,0.000000
0.245600,0.114100,0.299400,-0.977900,0.209000,0.000000
0.232300,0.037540,-0.099790,0.978500,-0.206200,0.000000
0.272500,0.242300,0.200400,-0.978500,0.206200,0.000000
0.284300,0.285200,0.054450,0.977700,-0.210000,0.000000
0.284500,0.299300,0.108900,-0.979200,0.203000,0.000000
0.259000,0.164600,-0.090700,0.977800,-0.209400,0.000000
0.307200,0.407100,-0.217700,-0.972900,0.231400,0.000043
-0.269300,-0.007794,0.526200,-0.105400,0.994400,-0.000002
-0.373900,-0.017560,-0.461900,-0.102200,0.994800,0.000000
0.391800,0.187800,0.544400,0.987800,-0.155800,0.000000
0.347600,-0.136000,0.308500,-0.992000,0.126200,0.000000
0.277100,0.255400,0.453700,0.978600,-0.205800,0.000000
0.338800,-0.216700,0.526200,0.990900,-0.134800,0.000000
0.314900,0.421500,-0.589700,-0.583100,0.812200,-0.017690
0.272500,0.233800,0.344800,0.978600,-0.205800,0.000000
-0.380300,-0.018400,-0.044590,-0.130100,0.991500,0.000000
0.156500,0.063540,0.827400,0.000000,0.000000,1.000000
0.348300,-0.144200,0.662300,0.990900,-0.134900,0.000000
0.325000,0.424400,0.335700,0.385900,-0.922400,0.014680
-0.279000,-0.190500,0.827400,0.000000,0.000000,1.000000
0.246700,0.106400,-0.154200,0.978600,-0.205800,0.000000
-0.444200,-0.082500,0.181500,-0.995800,0.091620,0.000000
-0.373900,-0.017560,-0.035520,-0.127900,0.991800,0.000000
0.375000,0.072640,-0.335700,-0.992000,0.126200,0.000000
0.375000,0.072640,-0.544400,-0.992000,0.126200,0.000000
0.266000,0.211100,0.725900,-0.978600,0.205800,0.000000
0.166000,0.217400,-0.789300,0.710900,-0.703200,-0.009088
0.283200,0.292900,-0.108900,-0.978600,0.205800,0.000000
0.363600,-0.027200,-0.317500,0.992100,-0.125400,0.000000
0.373100,0.045310,0.662300,0.992100,-0.125500,0.000000
-0.373900,-0.017560,-0.108100,-0.102200,0.994800,0.000000
0.364800,-0.004942,0.207900,-0.991400,0.130500,0.000000
0.328900,-0.278500,-0.372000,-0.991500,0.129900,0.000000
0.381800,0.124800,-0.770400,-0.991400,0.130900,0.000005
0.337800,-0.223200,-0.154200,0.990800,-0.135700,0.000000
0.364400,-0.020860,0.018160,0.991500,-0.130100,0.000000
0.305300,0.398400,-0.127000,-0.979100,0.203300,-0.000041
-0.413800,-0.022910,-0.027210,-0.210400,0.977600,0.000000
0.363900,-0.011350,0.697900,-0.991400,0.131100,0.000000
0.352700,0.123000,-0.824600,0.033690,-0.008344,0.999400
0.273900,0.248800,0.155000,-0.978600,0.205900,0.000000
0.239000,0.074320,0.544400,0.977800,-0.209400,0.000000
0.347600,-0.136000,0.689600,-0.992000,0.126200,0.000000
0.329700,-0.272100,0.689600,-0.992000,0.126200,0.000000
0.376900,0.420400,-0.066520,0.612900,0.790200,0.000000
0.329500,-0.286800,0.099820,0.994000,-0.109400,0.000000
-0.418300,-0.035730,-0.453600,0.926200,-0.377100,0.000000
0.258100,0.164900,0.145200,0.977800,-0.209400,0.000000
0.248600,0.119600,-0.580700,0.977800,-0.209300,0.000000
0.281800,0.286500,0.680500,-0.977900,0.209000,0.000000
0.356300,-0.069810,-0.353800,-0.991500,0.130200,0.000000
0.313600,0.415200,-0.716700,0.818500,-0.574400,0.000000
0.294300,0.337300,-0.417300,0.977800,-0.209400,0.000000
0.302400,0.376000,-0.499000,0.977700,-0.210200,0.000000
0.393000,0.194100,0.108900,0.988400,-0.151900,0.000000
-0.430300,-0.038170,0.154300,-0.872700,0.488300,0.000000
0.325400,-0.303500,0.617000,0.615200,-0.788300,0.000000
0.325400,-0.303500,0.480900,0.615300,-0.788300,0.000000
-0.359500,-0.018570,0.254100,0.109400,-0.994000,0.000000
0.324500,0.423900,0.725900,0.414100,-0.910200,0.000000
0.283400,0.285400,0.308500,0.975900,-0.218400,0.003103
0.329500,-0.286800,-0.290300,0.994000,-0.109400,0.000000
0.315000,0.421500,-0.299100,-0.596100,0.802900,0.009255
0.375900,0.173800,0.824600,-0.156500,0.005906,-0.987700
0.265400,0.335700,-0.755800,0.005995,-0.002002,1.000000
0.244200,0.107600,-0.707700,-0.978000,0.208500,0.000000
0.247100,0.113000,0.263100,0.977700,-0.209900,0.000000
0.273800,0.240100,-0.580600,0.977700,-0.210100,0.000000
-0.443500,-0.076590,-0.317500,-0.987700,0.156600,0.000015
0.138700,0.191100,-0.816200,0.604900,-0.708300,0.363900
-0.360300,0.002733,0.824500,0.000000,0.000000,-1.000000
0.274400,-0.303600,0.814300,-0.000541,0.985000,-0.172600
0.120200,0.054470,0.827400,0.000000,0.000000,1.000000
0.156300,-0.007894,0.750100,0.021930,0.569900,-0.821500
0.038570,0.072620,0.827400,0.000000,0.000000,1.000000
-0.064690,0.026890,0.824500,0.000000,0.000000,-1.000000
-0.396600,-0.020530,0.027240,-0.130100,0.991300,0.018360
-0.088440,-0.003347,0.743900,-0.005398,-0.999800,0.018270
0.238200,0.281200,0.827000,0.027410,-0.036660,0.999000
-0.351600,0.054470,-0.827400,0.000000,0.000000,-1.000000
0.020930,0.134000,0.798400,-0.282900,0.959100,0.000046
0.319300,-0.305600,-0.698600,0.148500,-0.988900,0.000000
0.319100,-0.299700,0.272200,-0.610400,0.792100,0.000000
0.183700,0.223100,0.824600,0.164600,-0.157600,-0.973700
0.248300,0.126900,0.208700,-0.979200,0.203000,0.000000
0.381800,0.399100,-0.776700,-0.628800,-0.555700,0.543900
0.235900,0.054750,-0.462700,0.979400,-0.202000,0.000000
0.354900,0.429700,-0.807500,0.145800,0.989300,0.008916
0.144800,0.082390,-0.825000,-0.000117,-0.012860,0.999900
0.325100,-0.426400,-0.826800,0.436400,-0.000872,-0.899700
-0.415600,0.102700,-0.780300,-0.850600,0.525900,-0.005547
0.273400,0.342300,0.824600,0.225100,-0.184200,-0.956800
0.084080,0.153800,0.754800,-0.058720,0.112300,-0.991900
0.300600,0.395500,0.751400,-0.849400,0.215100,-0.482000
-0.288000,0.105000,-0.824600,0.000961,-0.296500,0.955000
-0.228700,-0.018700,0.825300,-0.003887,-0.008885,-1.000000
0.305000,0.006084,-0.824600,0.003107,-0.001743,1.000000
0.319500,0.424600,0.136100,-0.502400,0.864600,0.002961
0.314900,0.421500,0.363000,-0.587600,0.809100,-0.011720
-0.275700,-0.008750,0.662300,-0.115900,0.993300,0.000000
-0.417600,-0.291500,-0.489900,0.950100,0.312100,0.000000
0.311200,0.418400,0.599200,-0.796000,0.605200,0.011940
0.384000,0.128100,0.462700,0.990900,-0.134800,0.000000
0.328900,0.208700,-0.827400,0.000000,0.000000,-1.000000
-0.426900,-0.032370,-0.553400,-0.854200,0.520000,0.000000
-0.419400,-0.344700,-0.732100,-0.617800,-0.000011,0.786300
-0.413200,-0.299100,0.157300,0.709600,0.704600,0.000000
0.301500,0.395900,-0.764100,0.823600,-0.502400,-0.263200
-0.198500,0.081070,0.824500,0.000000,0.000000,-1.000000
0.072640,0.144000,0.824600,0.114100,-0.210600,-0.970900
0.225900,0.017540,-0.755900,0.583600,-0.054070,-0.810200
0.329000,-0.293100,-0.245000,0.995600,-0.093800,0.000000
-0.191300,0.109000,-0.763800,0.000000,-0.713000,-0.701100
0.384300,0.327900,0.824500,0.008627,0.000016,-1.000000
0.300900,0.377100,-0.734800,-0.971900,0.192300,0.135700
0.274000,0.365100,-0.798400,-0.829300,0.558800,0.000000
0.390300,0.189500,0.326600,-0.991000,0.134200,0.000000
0.356900,-0.078150,-0.308500,0.990800,-0.135700,0.000000
0.180100,-0.018160,-0.465700,0.097170,0.995300,0.003106
0.215900,0.016090,0.824600,-0.001464,-0.000261,-1.000000
0.347400,-0.150700,0.408300,0.990700,-0.135900,0.000000
0.348300,-0.144200,-0.499000,0.990900,-0.134900,0.000000
0.374500,0.418500,0.378000,-0.589600,-0.807700,-0.000053
0.365200,-0.014520,0.771200,0.990700,-0.135700,0.000000
0.362900,-0.019060,-0.235900,-0.991400,0.130700,0.000000
0.345900,-0.148700,0.054450,-0.990900,0.134700,0.000000
0.328100,-0.284800,0.136100,-0.962400,0.271500,0.000000
0.353000,-0.108500,-0.018130,0.991500,-0.130200,0.000000
0.349800,-0.118400,-0.072570,-0.991500,0.130100,0.000000
0.365300,-0.014480,0.090730,0.995300,-0.096860,-0.008856
-0.421800,-0.298200,0.353900,-0.984200,-0.177100,0.000000
0.324100,-0.090280,0.824500,0.000677,-0.000076,-1.000000
0.280000,0.189900,0.825100,-0.013060,0.037280,-0.999200
0.144800,0.136900,0.824500,-0.000013,-0.000039,-1.000000
0.336500,-0.220000,0.200400,-0.991400,0.131100,0.000000
0.386800,0.162800,-0.344800,-0.991500,0.130200,0.000000
0.228400,0.032270,-0.063500,-0.981500,0.191300,0.000000
0.370800,0.027650,0.136100,0.991500,-0.130200,0.000000
0.354500,-0.082670,-0.272200,-0.991000,0.133900,0.000000
0.362900,-0.019060,0.598800,-0.991400,0.130700,0.000000
0.248300,0.126900,0.744000,-0.979100,0.203200,0.006540
0.391200,0.196100,0.471800,-0.992100,0.125200,0.000000
0.351000,-0.109400,-0.499000,-0.991500,0.130200,0.000000
-0.407100,0.090770,-0.759200,0.368600,-0.159200,-0.915800
0.330400,-0.280300,-0.353800,0.991000,-0.134100,0.000000
-0.426900,-0.032370,-0.263100,-0.854200,0.520000,0.000000
0.230000,-0.282300,-0.825500,0.017970,0.003880,0.999800
-0.034010,-0.016120,0.026460,-0.087800,0.521700,-0.848600
0.310600,0.408300,0.127000,0.945000,-0.327000,0.000000
0.366600,0.008916,-0.689500,-0.991600,0.129400,0.000000
-0.419900,-0.024790,-0.653200,-0.431000,0.902400,0.000000
0.283500,-0.054400,-0.827400,0.000000,0.000000,-1.000000
0.210200,-0.022150,0.181500,-0.187000,0.982400,0.000000
-0.417700,-0.063490,0.816500,0.927700,0.002826,-0.373400
0.361700,0.428400,0.634400,0.292000,0.956400,0.000000
-0.378800,-0.026510,-0.145200,0.000000,-1.000000,0.000000
0.164100,-0.017940,0.044790,-0.114600,-0.967300,0.226100
0.146800,-0.014680,0.190600,0.088920,0.996000,0.000000
-0.195400,-0.245500,0.824500,0.000000,0.000000,-1.000000
0.322500,0.170700,0.824500,0.000000,0.000000,-1.000000
-0.334100,0.055600,0.824500,0.000000,-0.000057,-1.000000
0.391000,0.181400,0.372000,0.992100,-0.125300,0.000000
0.391000,0.181400,0.136100,0.992100,-0.125300,0.000000
-0.414800,0.103500,-0.826200,-0.751900,0.585600,-0.303000
-0.417600,-0.291800,-0.635100,0.952200,0.305600,0.000000
-0.423900,-0.027730,-0.245000,-0.733800,0.679400,0.000000
-0.079360,0.116100,-0.807500,-0.046280,0.998900,-0.009386
0.324700,0.424000,0.145200,0.409700,-0.912200,0.000000
0.319300,-0.435400,-0.827300,0.045670,-0.035570,-0.998300
0.303400,0.404900,0.780300,0.796500,-0.600600,0.069800
0.373100,0.045310,0.045380,0.992100,-0.125500,0.000000
0.370100,0.035610,0.163300,-0.991500,0.130200,0.000000
0.174600,0.220000,-0.822200,0.403200,-0.407900,0.819100
-0.079260,-0.003106,0.750600,-0.002780,-0.990000,0.141000
0.252100,0.329500,0.798400,0.820900,-0.570400,0.028440
0.352200,-0.100500,0.671400,-0.991500,0.130200,0.000000
0.378400,0.099210,0.417400,-0.991500,0.130200,0.000000
0.355200,-0.090810,0.589800,0.992100,-0.125500,0.000000
0.338200,-0.207300,-0.434700,-0.991600,0.129600,0.000000
0.272500,0.242300,0.563300,-0.978500,0.206200,0.000000
0.314900,0.421500,0.036350,-0.587500,0.809100,-0.011750
-0.315300,0.115200,0.771200,0.000000,0.999700,0.023420
-0.279600,-0.010810,0.471800,0.084090,-0.996500,0.000000
0.238100,-0.306800,-0.807500,-0.296100,-0.955100,-0.000190
0.102000,-0.009779,0.408300,0.082800,0.996600,0.003043
0.311200,0.418400,0.217800,-0.793500,0.608600,-0.005783
-0.152100,0.001966,0.755900,-0.006989,-0.096400,0.995300
-0.265700,-0.009636,0.536100,0.079210,-0.996900,0.000000
0.064840,-0.296300,0.821800,0.000000,0.567200,-0.823600
0.394600,0.381000,-0.480900,1.000000,0.004367,-0.002626
-0.265700,-0.009636,0.481600,0.079210,-0.996900,0.000000
0.231600,0.037710,0.751200,0.983500,-0.181000,0.001502
-0.324400,-0.022350,-0.745000,0.036820,0.974300,0.222000
-0.259400,-0.009167,0.590500,0.069730,-0.997600,0.000000
0.107300,0.174500,-0.816500,-0.566200,0.824300,0.004905
0.324900,-0.292500,0.208700,-0.856500,0.516100,0.000000
0.239700,0.074180,-0.009031,0.977200,-0.209300,0.036710
-0.224600,-0.016050,0.025550,-0.005896,0.468500,-0.883500
0.310800,0.136100,0.827400,0.000000,0.000000,1.000000
-0.227800,0.101200,0.824600,0.001037,-0.149600,-0.988800
0.020160,-0.003861,-0.680500,0.073310,0.997300,0.000000
0.290500,0.035070,0.824500,-0.000046,0.000021,-1.000000
-0.046230,0.114100,-0.816200,0.193300,-0.888500,0.416200
0.301900,0.375200,0.824500,-0.001823,0.001326,-1.000000
-0.154100,0.113400,0.814400,0.000000,-0.988600,-0.150600
0.020130,-0.004194,-0.326600,0.036640,0.999300,0.000000
0.229000,-0.305700,-0.816500,-0.061790,-0.997800,-0.022140
0.038630,-0.007443,-0.698600,-0.059670,-0.998200,-0.000026
0.087590,-0.008626,0.521300,0.113500,0.993400,-0.013740
0.301700,-0.063500,-0.825500,-0.025770,0.008757,0.999600
0.011110,-0.003732,-0.226800,0.028760,0.999600,0.000006
-0.215700,-0.006489,0.544400,0.056510,-0.998400,0.000000
-0.233600,-0.108800,0.826700,0.000000,0.036680,0.999300
0.291600,0.376200,-0.822600,0.510000,-0.323100,0.797200
-0.388000,-0.306500,0.753700,0.160800,-0.982300,-0.096150
-0.110400,-0.235400,-0.824900,0.127100,-0.019040,0.991700
-0.300400,-0.300900,0.816100,0.008828,0.899600,-0.436600
0.315600,0.284600,0.824500,0.000000,0.000000,-1.000000
-0.242400,-0.006268,-0.417300,-0.060260,0.998200,0.000000
0.319900,0.424400,-0.362900,-0.495200,0.868800,0.000033
-0.233700,-0.007569,0.716800,0.059690,-0.998200,0.000000
0.337800,0.234700,-0.824600,0.022340,0.046490,0.998700
0.235900,0.054750,-0.317500,0.979400,-0.202000,0.000000
0.339200,0.421100,-0.823800,0.053930,-0.356700,0.932600
-0.345000,0.035720,0.824600,0.000239,-0.000300,-1.000000
0.250200,-0.441700,0.778800,0.010420,-0.430900,-0.902300
0.384900,0.408000,-0.293300,-0.802200,-0.597000,0.000023
-0.025070,-0.002367,-0.036280,0.053710,0.998600,0.000000
-0.179100,-0.002770,0.517200,-0.035840,0.999400,-0.000013
0.012830,0.131200,-0.816500,-0.282900,0.959000,-0.014100
0.301300,-0.010120,-0.824600,0.025540,-0.021160,0.999400
-0.161200,-0.004274,-0.580700,0.032500,-0.999500,0.000000
0.392500,0.380900,0.725900,-1.000000,0.005660,-0.000020
0.369200,0.240100,0.824500,-0.008014,-0.002343,-1.000000
-0.034010,0.108900,0.827400,-0.002992,0.008974,1.000000
-0.422400,-0.172300,0.036300,-0.993400,-0.114800,0.000000
0.256400,-0.294000,-0.825000,-0.016590,0.271600,0.962300
0.331100,0.426400,0.272200,0.254500,-0.967100,0.000000
0.361200,0.425600,0.592800,-0.342100,-0.939700,0.000000
0.346800,0.428000,0.263100,-0.009691,-1.000000,0.000079
0.346900,0.430900,-0.127000,0.037170,0.999300,0.000000
0.147400,0.154300,0.754700,0.000000,0.000000,-1.000000
0.306600,0.391000,0.254100,0.979200,-0.202800,0.000000
0.381800,0.124800,0.772000,-0.991400,0.130900,0.000007
0.382300,0.115300,-0.499000,0.991500,-0.130100,0.000000
0.345900,-0.148700,-0.317500,-0.990900,0.134700,0.000000
-0.179100,-0.003104,0.734900,-0.015510,0.998000,-0.062040
-0.016000,-0.003025,0.108900,0.054300,0.998500,0.000000
0.229700,0.038690,-0.299400,-0.978600,0.205700,0.000000
-0.133800,-0.290300,-0.827400,0.000000,-0.001538,-1.000000
0.338900,0.430600,0.181500,-0.104300,0.994500,0.000000
0.256300,0.151700,-0.136100,0.978600,-0.205700,0.000000
0.291400,0.331800,0.417400,-0.977900,0.209200,0.000000
-0.170100,-0.026510,-0.226800,0.000000,-1.000000,0.000000
-0.142900,-0.023700,-0.108800,0.000000,1.000000,0.000000
-0.188300,-0.026510,0.009079,0.000000,-1.000000,0.000000
0.192800,0.090770,-0.757600,0.000000,0.000000,-1.000000
-0.421900,-0.272200,-0.734900,-1.000000,0.000000,0.000000
-0.421900,-0.136100,-0.807500,-1.000000,0.000000,-0.000110
-0.421900,-0.254000,0.000014,-1.000000,0.000000,0.000000
-0.419100,-0.254000,0.127000,1.000000,0.000000,0.000000
-0.421900,-0.208700,0.045380,-1.000000,0.000000,0.000000
-0.419100,-0.190500,0.181500,1.000000,0.000000,0.000000
0.183700,0.090760,0.753200,0.000000,0.000000,-1.000000
-0.306200,0.045380,0.756000,0.003049,0.012250,0.999900
-0.419100,-0.263100,-0.090710,1.000000,0.000000,0.000000
-0.419100,-0.272200,-0.108900,1.000000,-0.000221,0.000000
-0.419100,-0.254000,-0.108900,1.000000,0.000000,0.000000
-0.288100,-0.305700,-0.771200,0.000000,-1.000000,0.000000
-0.061240,-0.023700,-0.471800,-0.000028,1.000000,0.000000
-0.251800,-0.023700,-0.072560,-0.006848,1.000000,0.000000
-0.006818,0.081670,0.756000,0.000000,0.000000,1.000000
0.093000,0.027250,0.753200,0.000000,0.000000,-1.000000
0.000565,0.121400,0.822600,0.230300,-0.634600,-0.737800
-0.421900,-0.272200,-0.090720,-1.000000,0.000000,0.000000
0.292700,0.338200,0.045380,-0.978600,0.205800,0.000000
0.065560,-0.023790,-0.698600,-0.300600,0.953700,0.000000
0.286300,0.307800,-0.408300,-0.979100,0.203200,0.000000
-0.414300,0.065930,0.822200,0.662300,-0.019430,-0.749000
0.325000,0.424600,0.471800,0.384500,-0.923100,0.009093
-0.421900,-0.054420,0.789400,-1.000000,0.000000,0.000000
-0.260800,0.045400,0.753200,0.000000,0.000000,-1.000000
0.346900,0.430900,-0.208700,0.037170,0.999300,0.000000
-0.043090,0.018180,-0.827400,0.000000,0.000000,-1.000000
0.391200,0.196100,0.163300,-0.992100,0.125200,0.000000
-0.024950,-0.023700,-0.716700,0.000000,1.000000,0.000000
0.274500,-0.305700,-0.417300,0.000000,-1.000000,0.000000
0.065770,0.027230,0.756000,0.000000,0.000000,1.000000
0.295800,0.353100,-0.462700,-0.979100,0.203300,0.000000
-0.242700,-0.023700,-0.018120,0.000006,1.000000,0.000000
-0.043090,-0.023700,0.000026,0.000015,1.000000,0.000291
0.164000,0.218800,-0.763100,-0.679800,0.733400,-0.004881
-0.242700,-0.026510,-0.054430,0.000000,-1.000000,0.000000
0.056690,-0.026510,-0.734900,0.000000,-1.000000,0.000000
0.147400,0.090740,0.756000,0.000000,0.000055,1.000000
0.083890,0.145200,-0.755100,-0.000389,0.009748,1.000000
0.270900,0.234700,0.009095,-0.978500,0.206100,0.000000
-0.421900,0.000022,0.771200,-1.000000,0.000336,-0.003515
-0.387900,-0.208600,0.827400,0.000000,0.000000,1.000000
-0.161000,-0.305700,-0.807500,0.000000,-1.000000,-0.000110
0.191100,0.247300,-0.807500,-0.760400,0.649500,-0.000432
-0.421900,-0.018120,0.816500,-0.999900,0.000000,0.010040
0.065770,-0.303100,0.671400,0.018330,0.999800,-0.009139
0.256300,-0.305700,-0.753000,0.000499,-1.000000,-0.001719
0.276800,0.262600,-0.335700,-0.978700,0.205400,0.000000
-0.043130,-0.302900,0.526200,-0.021370,0.999700,0.015270
0.338200,-0.207300,0.545200,-0.991600,0.129600,0.000000
-0.097550,-0.000845,-0.480900,0.017390,0.999800,0.000000
0.389300,0.405900,-0.254000,0.852800,0.522200,-0.000005
0.271200,0.227400,0.553500,0.979400,-0.202000,0.000000
0.269100,0.226000,-0.235900,-0.979100,0.203200,0.000000
-0.206300,-0.003503,0.281300,-0.030770,0.999500,0.000000
0.264900,0.342000,0.820500,0.707200,-0.546100,-0.449100
0.233200,0.046440,0.571600,0.979300,-0.202500,0.000000
0.335400,-0.244600,-0.771200,0.991800,-0.126300,-0.018380
0.342600,-0.189900,-0.762100,0.991500,-0.130200,0.000011
-0.024810,-0.004524,0.399200,-0.035570,-0.999400,0.000000
0.065560,-0.024790,-0.217700,-0.320100,0.947400,0.000000
-0.297100,0.081690,0.753200,0.000000,0.000000,-1.000000
0.192800,-0.305700,-0.589700,0.000000,-1.000000,0.000000
0.147400,0.090740,-0.755100,-0.006121,0.012240,0.999900
-0.419400,-0.226800,-0.226800,0.999300,0.036710,-0.000005
0.394900,0.353900,-0.372000,0.999900,0.015240,0.006135
0.174700,-0.305700,-0.045340,0.000000,-1.000000,0.000000
-0.170100,-0.305700,0.789400,0.000000,-1.000000,0.000000
-0.043190,-0.001470,-0.662300,0.004721,1.000000,0.000000
-0.152100,-0.004009,0.707700,0.025180,-0.999700,0.000000
0.374800,0.057980,0.607900,0.990800,-0.135600,0.000000
-0.052220,-0.001963,-0.099780,-0.002866,1.000000,0.000000
-0.106700,-0.003369,-0.372000,0.008370,-1.000000,0.000000
0.366200,-0.007997,-0.725800,0.990900,-0.134800,-0.000000
0.259900,0.173500,0.571600,0.978600,-0.205800,0.000000
0.011120,-0.003565,0.045380,0.034810,0.999400,0.006132
-0.015890,-0.026510,-0.617000,0.000000,-1.000000,0.000000
0.154500,0.210000,-0.789400,-0.629600,0.776700,-0.021380
-0.419100,-0.090700,-0.789300,0.999800,0.000000,0.018360
-0.421900,-0.281200,0.263100,-1.000000,0.000000,0.000000
-0.419100,-0.272200,-0.680500,1.000000,-0.000221,0.000000
-0.421900,-0.281200,-0.499000,-1.000000,0.000000,0.000000
-0.421900,-0.063490,0.798400,-1.000000,0.000000,0.000000
0.210900,0.063530,0.756000,0.004286,0.003685,1.000000
-0.052230,-0.303400,0.226800,-0.027460,0.999600,0.009138
0.111000,-0.010530,0.399200,0.090610,0.995800,0.012180
-0.387700,-0.020040,0.562500,-0.122300,0.992500,0.006107
0.345900,-0.148700,0.108900,-0.990900,0.134700,0.000000
0.355400,-0.076150,0.081670,-0.990900,0.134700,0.000000
-0.417500,0.097320,0.826500,-0.632800,0.176700,0.753900
-0.405400,-0.022370,0.245000,-0.097580,0.995200,0.000000
0.129300,0.054470,-0.757600,0.000000,0.000000,-1.000000
-0.342700,-0.016820,0.617000,0.104000,-0.994600,0.000000
0.147600,-0.016590,0.544400,-0.107300,-0.994200,0.000000
-0.079410,-0.001305,-0.072580,0.038970,0.999200,-0.000043
-0.378800,-0.290300,-0.827400,0.000000,-0.001538,-1.000000
0.198000,0.053530,0.824600,-0.008148,-0.004416,-1.000000
0.345000,-0.155200,0.698600,-0.991000,0.134100,0.000000
0.364400,-0.020860,0.571600,0.991500,-0.130100,0.000000
0.375700,0.064490,-0.235900,0.990900,-0.134700,0.000000
0.362900,-0.019060,-0.208700,-0.991400,0.130700,0.000000
0.364400,-0.020860,0.226800,0.991500,-0.130100,0.000000
-0.369700,-0.305700,0.771200,-0.000239,-1.000000,0.000037
0.265400,-0.305700,-0.408300,0.000000,-1.000000,0.000000
0.192800,0.009109,-0.757600,0.000000,0.000000,-1.000000
0.083870,-0.303400,0.598800,-0.027460,0.999600,0.009138
0.147400,-0.303400,0.744000,0.015290,0.999800,-0.012270
-0.351600,-0.303400,-0.598800,-0.018300,0.999800,0.000003
-0.070310,-0.305700,0.127000,0.000000,-1.000000,0.000000
-0.088450,-0.305700,0.444600,0.000000,-1.000000,0.000000
-0.408400,0.110700,0.762500,-0.597500,0.800700,-0.042060
-0.097530,-0.305700,0.807500,0.000000,-1.000000,0.000111
-0.088480,-0.303900,0.553400,0.000000,1.000000,0.000000
0.315000,0.228000,0.825200,0.004329,-0.010330,-0.999900
0.389900,0.172700,0.580700,0.992000,-0.126100,0.000000
0.389900,0.172700,0.145200,0.992000,-0.126100,0.000000
0.387900,0.171700,-0.217700,-0.991500,0.130200,0.000000
-0.215200,-0.004313,-0.199600,-0.056410,0.998400,-0.000000
0.362500,-0.035940,-0.489900,0.992000,-0.126100,0.000000
-0.306200,0.113100,0.807500,0.000000,-0.999800,0.021310
-0.422400,-0.172300,-0.099790,-0.993400,-0.114800,0.000000
0.375700,0.064490,0.054450,0.990900,-0.134700,0.000000
0.047660,-0.007983,0.299400,-0.059670,-0.998200,0.000000
-0.233700,-0.007569,0.335700,0.059690,-0.998200,0.000000
-0.224700,-0.007029,0.290300,0.059690,-0.998200,0.000000
0.284800,0.381100,-0.798400,-0.828500,0.560000,0.000000
0.394600,0.344800,-0.753100,0.999800,0.000002,0.018330
-0.106600,-0.000889,0.208700,-0.026730,0.999600,0.000000
-0.269900,0.009109,-0.757600,0.000000,0.000000,-1.000000
0.394600,0.272200,0.172400,0.999900,-0.015220,-0.006138
0.392400,0.344800,-0.499000,-1.000000,0.000000,0.000000
0.394600,0.235900,0.426400,0.999400,-0.033630,0.003056
-0.043110,-0.026510,-0.027210,0.000000,-1.000000,0.000000
-0.097510,-0.024040,-0.018160,0.027530,0.999200,-0.027550
0.351000,-0.109400,0.535300,-0.991500,0.130200,0.000000
0.283300,0.353900,-0.755800,-0.260000,0.029030,0.965200
-0.324400,-0.305700,0.090760,0.000000,-1.000000,0.000000
-0.097560,-0.003325,-0.163300,0.000906,-1.000000,0.000000
0.274400,0.344800,-0.755800,-0.016790,0.010060,0.999800
-0.170300,-0.004600,-0.571600,0.035860,-0.999400,0.000000
-0.170300,-0.004600,-0.344800,0.035860,-0.999400,0.000000
-0.043000,-0.003954,0.408300,-0.023320,-0.999700,0.000000
-0.043000,-0.003954,0.390100,-0.023320,-0.999700,0.000000
-0.106700,-0.003369,0.136100,0.008370,-1.000000,0.000000
0.333900,-0.253500,0.762100,0.991500,-0.130200,0.000000
0.388700,0.163800,0.381100,0.991500,-0.130200,0.000000
0.387500,0.154900,-0.154200,0.991500,-0.130200,0.000000
0.269100,0.226000,-0.580600,-0.979100,0.203200,0.000000
0.269100,0.226000,-0.254000,-0.979100,0.203200,0.000000
0.370800,0.027650,-0.163300,0.991500,-0.130200,0.000000
0.383400,0.137400,0.717500,-0.991600,0.129600,0.000000
0.369700,0.018730,0.000018,0.991500,-0.130100,0.000000
0.354800,0.089880,0.824500,0.000040,-0.000019,-1.000000
0.343500,-0.181000,0.027230,0.991500,-0.130200,0.000000
-0.269900,-0.305700,-0.807500,0.000000,-1.000000,-0.000110
-0.419400,-0.217700,0.027210,0.999800,0.009191,-0.018330
-0.215500,0.111500,-0.816200,0.000000,-0.962600,0.271000
0.265400,-0.305700,-0.235900,0.000000,-1.000000,0.000000
-0.396900,-0.303200,0.598800,0.033730,0.999400,0.000000
0.274400,-0.303600,-0.598800,0.018260,0.999800,0.000000
0.392500,0.380900,0.698600,-1.000000,0.005681,0.000000
-0.405900,-0.303600,-0.635100,0.249000,0.968500,0.000000
0.344600,-0.172100,0.607900,0.992000,-0.126100,0.000000
0.274500,-0.305700,0.235900,0.000000,-1.000000,0.000000
0.238200,-0.305700,0.235900,0.000000,-1.000000,0.000000
0.339200,-0.199700,-0.344800,-0.991600,0.129400,0.000000
0.344600,-0.172100,0.471800,0.992000,-0.126100,0.000000
0.247200,-0.305700,0.018170,0.000000,-1.000000,0.000000
-0.142900,-0.303600,-0.753000,0.000000,0.999300,0.036680
-0.419800,-0.217700,-0.217700,0.999300,0.036740,-0.000004
0.292600,-0.303600,-0.127000,0.018330,0.999800,0.000000
0.256300,-0.303600,-0.725800,-0.018290,0.999800,0.000000
0.366600,0.008916,-0.426400,-0.991600,0.129400,0.000000
0.367700,0.017770,0.027230,-0.991500,0.129900,0.000000
0.234700,0.062290,-0.009052,-0.978500,0.206100,0.000000
-0.133800,-0.024030,-0.244900,0.036730,0.999300,-0.000001
-0.088470,-0.001205,0.208700,0.043720,0.999000,0.000000
-0.359800,-0.016520,0.281300,-0.072480,0.997400,0.000004
0.222800,0.289400,0.798400,-0.825300,0.564800,0.000030
0.371200,0.044530,-0.290300,-0.991500,0.130300,0.000000
0.249200,0.317000,-0.820500,0.636600,-0.515100,0.573900
0.357100,-0.063480,0.626100,-0.992000,0.126200,0.000000
-0.279000,-0.099770,-0.827400,0.000000,0.000000,-1.000000
0.146800,-0.014680,0.099830,0.107300,0.994200,0.000000
0.333900,-0.253500,0.009089,0.991500,-0.130200,0.000000
0.111600,-0.012910,0.471800,-0.088320,-0.996100,0.000000
-0.333400,-0.303700,-0.598800,0.036660,0.999200,-0.018400
-0.124700,-0.303700,0.372000,0.033640,0.999200,-0.021370
-0.388600,-0.022310,0.081670,0.131200,-0.991400,0.000000
-0.161000,-0.002120,-0.090710,-0.053970,0.998500,-0.003062
0.147400,0.018180,-0.757600,0.000000,0.000000,-1.000000
0.366400,0.401900,-0.824600,0.003387,0.002259,1.000000
0.379600,0.108100,0.653300,-0.991500,0.130200,0.000000
0.228900,0.017960,0.544400,0.999400,-0.033360,0.000000
0.155700,-0.015650,0.054460,0.088950,0.996000,-0.000049
0.334600,-0.104400,0.824600,-0.091780,0.001648,-0.995800
0.379600,0.108100,-0.744000,-0.991500,0.130200,0.000000
-0.242800,-0.008110,0.226800,0.060570,-0.998200,0.000000
0.038570,-0.208600,-0.827400,0.000000,0.000000,-1.000000
0.156500,-0.145200,-0.825500,0.000000,0.000000,1.000000
-0.197400,-0.163300,-0.825500,-0.003010,0.006019,1.000000
0.029490,0.081690,-0.827400,0.000000,0.000000,-1.000000
-0.043090,-0.199600,-0.827400,0.000000,0.000000,-1.000000
-0.342500,-0.090720,-0.825500,0.000000,0.000000,1.000000
0.092980,-0.303900,0.299400,0.000000,1.000000,0.000000
0.183700,0.000036,-0.757600,0.000000,0.000000,-1.000000
0.114900,0.032790,0.825300,-0.004679,-0.000309,-1.000000
0.266000,0.211100,0.544400,-0.978600,0.205800,0.000000
0.282000,0.279000,-0.308500,0.978600,-0.205700,0.000000
0.202400,-0.023200,0.054500,-0.123100,-0.989500,0.075330
0.227300,0.026080,0.181500,-0.990700,0.136200,0.000000
0.071870,-0.009503,0.695600,-0.077430,-0.997000,0.000000
0.210900,-0.303400,-0.807400,0.018410,0.997600,0.067410
0.129300,0.163300,-0.757600,0.012900,-0.027190,-0.999500
0.201800,-0.303400,-0.798400,-0.027510,0.999000,0.036400
-0.215500,-0.305700,-0.254000,0.000000,-1.000000,0.000000
-0.419600,-0.208700,0.480900,0.999900,0.015200,-0.003013
-0.242300,-0.006266,0.099810,-0.041840,0.999100,0.000000
0.245600,0.114100,-0.689500,-0.977900,0.209000,0.000000
0.291400,0.331800,0.671400,-0.977900,0.209200,0.000000
-0.070340,-0.303900,-0.617000,0.000000,1.000000,0.000000
-0.015760,-0.004848,0.235900,-0.035880,-0.999400,0.000000
0.263200,0.198100,-0.326600,-0.978000,0.208500,0.000000
0.289900,0.325200,0.517200,-0.978000,0.208600,0.000000
0.284800,0.292000,-0.626000,0.977800,-0.209500,0.000000
0.283200,0.292900,0.499000,-0.978600,0.205800,0.000000
0.264800,0.197200,0.272200,0.978600,-0.205700,0.000000
-0.405800,-0.009067,-0.825600,0.180700,0.000000,0.983500
-0.133800,-0.001882,0.326600,-0.012460,0.999900,0.000002
-0.161000,-0.024700,-0.571600,0.000000,1.000000,0.000000
0.011350,-0.305700,0.045390,0.000000,-1.000000,0.000000
-0.224600,-0.026510,-0.453600,0.000000,-1.000000,0.000000
-0.224600,-0.024700,-0.562500,0.000000,1.000000,0.000000
0.029470,-0.026510,-0.190500,0.000000,-1.000000,0.000000
0.020420,-0.024700,-0.353800,0.000000,1.000000,0.000000
-0.215500,-0.024700,-0.317500,0.000000,1.000000,0.000000
-0.188300,-0.024700,-0.535300,0.000000,1.000000,0.000000
-0.242700,-0.024700,-0.598800,0.000006,1.000000,0.000000
-0.188300,-0.024700,-0.290300,-0.018380,0.999800,-0.009201
-0.242700,-0.026510,-0.662300,0.000000,-1.000000,0.000000
-0.242700,-0.024700,-0.707700,0.000004,0.999800,0.018280
0.394200,0.326600,0.716800,1.000000,0.000000,0.000000
-0.360600,-0.305700,0.598800,0.000000,-1.000000,0.000000
0.394200,0.362900,-0.145200,1.000000,0.000000,0.000000
0.394200,0.308500,0.154200,0.999900,0.012260,0.003055
-0.360700,-0.303900,0.734900,0.000000,1.000000,0.000000
0.394200,0.226800,-0.290300,1.000000,0.000000,0.000000
0.394200,0.254000,-0.562500,1.000000,0.000000,0.000000
0.147400,-0.305700,-0.444500,0.000000,-1.000000,0.000000
0.165600,-0.305700,-0.381000,0.000000,-1.000000,0.000000
-0.224500,-0.305700,-0.054410,0.000000,-1.000000,0.000000
-0.224500,-0.305700,0.072610,0.000000,-1.000000,0.000000
-0.115700,-0.303900,-0.245000,0.000000,1.000000,0.000000
-0.233600,-0.303900,0.489900,0.000000,1.000000,0.000000
-0.306200,-0.303900,-0.417400,0.000037,1.000000,-0.000018
-0.142900,-0.303900,-0.417400,0.000000,1.000000,0.000000
0.301000,0.369500,-0.480800,0.978600,-0.205700,0.000000
-0.315300,-0.303900,-0.108900,0.000000,1.000000,0.000000
0.392400,0.263200,-0.217700,-1.000000,0.000000,0.000000
-0.197300,-0.305700,-0.471800,0.000000,-1.000000,0.000000
0.392400,0.326700,0.417400,-1.000000,0.000000,0.000000
-0.061230,-0.305700,-0.535300,0.000000,-1.000000,0.000000
-0.088450,-0.305700,-0.281200,0.000000,-1.000000,0.000000
0.038540,-0.303900,0.326600,0.000000,1.000000,0.000000
-0.088450,-0.305700,-0.562500,0.000000,-1.000000,0.000000
-0.006825,-0.303900,-0.598800,0.000000,1.000000,0.000000
0.083900,-0.303900,0.208700,0.000000,1.000000,0.000000
0.192800,-0.303900,0.099800,0.018370,0.999800,0.000000
0.011320,-0.303900,-0.245000,0.000000,1.000000,0.000000
0.047640,-0.305700,0.072610,0.000000,-1.000000,0.000000
0.047610,-0.303900,-0.036290,0.000000,1.000000,0.000000
0.002248,-0.303900,-0.127000,0.000000,1.000000,0.000000
0.129300,-0.305700,0.036320,0.000000,-1.000000,0.000000
-0.097530,-0.305700,-0.635100,0.000000,-1.000000,0.000000
-0.297100,-0.305700,-0.081630,0.000000,-1.000000,0.000000
0.093010,-0.305700,-0.335700,0.000000,-1.000000,0.000000
-0.179200,-0.305700,-0.072560,0.000000,-1.000000,0.000000
-0.097530,-0.305700,0.181500,0.000000,-1.000000,0.000000
0.056710,-0.305700,-0.136100,0.000000,-1.000000,0.000000
-0.097550,-0.303900,-0.027220,0.000000,1.000000,0.000000
0.392400,0.308500,0.208700,-1.000000,0.000000,0.000000
0.394200,0.308500,-0.435500,1.000000,0.000000,0.000000
-0.269900,-0.305700,-0.136100,0.000000,-1.000000,0.000000
-0.360700,-0.303900,0.671400,0.000000,1.000000,0.000000
0.392400,0.235900,0.725900,-1.000000,0.000000,0.000000
-0.215500,-0.305700,0.762200,0.000000,-1.000000,0.000000
0.392400,0.353900,0.707700,-1.000000,0.000000,0.000000
0.394200,0.335700,-0.734900,1.000000,0.000000,0.000000
0.129300,-0.303900,0.317600,0.000000,1.000000,0.000000
-0.315300,-0.303900,-0.698600,0.000000,1.000000,0.000000
0.129300,-0.303900,0.589700,0.000000,1.000000,0.000000
-0.061260,-0.303900,0.653300,0.000000,1.000000,0.000000
-0.179200,-0.305700,-0.589700,0.000000,-1.000000,0.000000
-0.142900,-0.303900,-0.635100,0.000000,1.000000,0.000000
-0.179200,-0.303900,-0.353800,0.000000,1.000000,0.000000
0.394200,0.235900,-0.235900,1.000000,0.000000,0.000000
0.394200,0.245000,-0.399200,1.000000,0.000000,0.000000
0.210900,-0.303900,-0.725800,0.000000,1.000000,0.000000
-0.070310,-0.305700,0.753100,0.000000,-1.000000,0.000000
-0.351600,-0.305700,-0.244900,0.000000,-1.000000,0.000000
-0.242700,-0.305700,-0.553400,0.000000,-1.000000,0.000000
0.147400,-0.305700,0.199600,0.000000,-1.000000,0.000000
-0.369700,-0.305700,-0.072560,0.000000,-1.000000,0.000000
-0.015870,-0.305700,-0.489900,0.000000,-1.000000,0.000000
0.038570,-0.305700,-0.725800,0.000000,-1.000000,0.000000
0.047640,-0.305700,0.372000,0.000000,-1.000000,0.000000
0.020420,-0.305700,0.127000,0.000000,-1.000000,0.000000
0.056690,-0.303900,0.381100,0.000000,1.000000,0.000000
0.056690,-0.303900,0.780300,0.000000,1.000000,0.000000
0.394200,0.335700,-0.045360,1.000000,0.000000,0.000000
0.074830,-0.303900,-0.499000,0.000000,1.000000,0.000000
-0.279000,-0.305700,-0.290300,0.000000,-1.000000,0.000000
0.247200,-0.303900,0.335700,0.000000,1.000000,0.000000
0.147400,-0.303900,0.680500,-0.000037,1.000000,0.000018
-0.342500,-0.305700,0.480900,0.000000,-1.000000,0.000000
-0.251800,-0.305700,0.480900,0.000000,-1.000000,0.000000
-0.387900,0.114900,-0.780300,-0.011110,0.999800,-0.018550
0.392400,0.235900,0.299400,-1.000000,0.000000,0.000000
-0.324400,-0.305700,0.635100,0.000000,-1.000000,0.000000
-0.242700,-0.305700,-0.589700,0.000000,-1.000000,0.000000
0.392400,0.299400,0.734900,-1.000000,0.000000,0.000000
-0.351600,-0.303900,-0.744000,0.000000,0.999800,0.018370
0.283500,-0.305700,0.399200,0.000000,-1.000000,0.000000
0.156500,-0.303900,0.127000,-0.018380,0.999800,0.000000
-0.369700,-0.303900,0.263100,0.000000,1.000000,0.000000
0.394200,0.281300,0.408300,1.000000,0.000000,0.000000
0.211000,-0.305700,0.471800,0.000000,-1.000000,0.000000
-0.315300,-0.303900,0.462700,0.000000,1.000000,0.000000
-0.306200,-0.303900,-0.335700,0.000000,1.000000,0.000000
0.147400,-0.305700,0.471800,0.000000,-1.000000,0.000000
0.229100,-0.303900,-0.254000,0.000000,1.000000,0.000000
0.220000,-0.305700,-0.335700,0.000000,-1.000000,0.000000
-0.233600,-0.303900,-0.399200,0.000000,1.000000,0.000000
0.238100,-0.303900,0.753100,-0.018380,0.999800,0.000004
0.301700,-0.303900,-0.136100,0.021590,0.999800,0.000000
0.029490,-0.305700,0.535300,0.000000,-1.000000,0.000000
-0.179200,-0.303900,-0.508100,0.000000,1.000000,0.000000
0.392400,0.308500,0.499000,-1.000000,0.000000,0.000000
0.264800,0.197200,0.036310,0.978600,-0.205700,0.000000
-0.043110,-0.026510,-0.081650,0.000000,-1.000000,0.000000
0.020420,-0.024700,-0.063490,0.000000,1.000000,0.000000
0.038560,-0.024700,-0.290300,0.000000,1.000000,0.000000
0.056290,-0.006348,0.190500,0.044920,0.999000,0.000000
-0.097530,-0.081620,-0.827400,0.000000,0.000000,-1.000000
-0.206600,-0.006004,-0.372000,0.049370,-0.998800,0.000000
0.102100,-0.303900,0.417400,0.000000,1.000000,0.000000
-0.206600,-0.006004,-0.245000,0.049370,-0.998800,0.000000
0.392400,0.245000,0.453700,-1.000000,0.000000,0.000000
-0.197200,-0.003427,0.326600,-0.022570,0.999700,-0.000007
0.093120,-0.009617,0.108900,0.078400,0.996900,0.000000
-0.115700,-0.003477,-0.698600,0.011920,-0.999900,0.000003
0.221400,-0.010870,0.744200,-0.877000,0.347400,-0.332000
-0.124800,-0.001772,0.235900,-0.030370,0.999500,0.000000
-0.188200,-0.003093,0.562500,-0.018020,0.999800,0.000000
-0.233700,-0.007569,-0.027200,0.059690,-0.998200,0.000000
-0.052260,-0.001630,-0.480800,-0.002857,1.000000,0.000000
-0.124800,-0.003586,-0.181400,0.011940,-0.999900,0.000000
0.020420,-0.208600,-0.827400,0.000000,0.000000,-1.000000
-0.387900,-0.303600,-0.444600,0.018330,0.999800,0.000000
-0.097550,0.115300,0.798400,-0.056120,0.998400,-0.000055
0.274400,-0.303600,0.099800,0.000000,1.000000,0.000000
0.265300,-0.303600,-0.018140,-0.018350,0.999800,0.000000
0.256300,-0.303600,-0.707700,-0.018290,0.999800,0.000000
-0.088630,0.113400,-0.807500,0.013990,-0.998700,0.048560
0.011340,-0.024700,-0.362900,0.000000,1.000000,0.000000
0.363600,-0.027200,-0.145200,0.992100,-0.125400,0.000000
-0.297100,-0.022330,-0.744500,0.000047,0.912800,0.408500
0.375000,0.072640,-0.154200,-0.992000,0.126200,0.000000
0.359000,-0.062710,0.598800,0.991500,-0.130200,0.000000
-0.052130,-0.003777,-0.072580,-0.015670,-0.999900,0.000000
-0.043110,-0.026510,-0.381100,0.000000,-1.000000,0.000000
-0.052180,-0.026510,-0.045360,0.000000,-1.000000,0.000000
0.392400,0.326700,-0.063480,-1.000000,0.000000,0.000000
0.092980,-0.303900,-0.317600,0.000000,1.000000,0.000000
0.074830,-0.303900,0.081660,0.000000,1.000000,0.000000
-0.061230,-0.305700,0.045390,0.000000,-1.000000,0.000000
0.029490,-0.305700,0.027250,0.000000,-1.000000,0.000000
-0.043090,-0.305700,0.653300,0.000000,-1.000000,0.000000
0.247200,-0.305700,-0.054410,0.000000,-1.000000,0.000000
0.092980,-0.303900,-0.136100,0.000000,1.000000,0.000000
-0.088480,-0.303900,0.671400,0.000000,1.000000,0.000000
0.336200,-0.235900,-0.344800,0.992100,-0.125500,0.000000
-0.006825,-0.303900,0.127000,0.000000,1.000000,0.000000
0.011320,-0.303900,0.480900,0.000000,1.000000,0.000000
-0.095830,0.073290,-0.825200,0.038270,0.000024,0.999300
-0.421900,-0.199600,0.626000,-1.000000,0.000000,0.000000
-0.079410,-0.303900,0.689500,0.000000,1.000000,0.000000
-0.052160,-0.305700,-0.716700,0.000000,-1.000000,0.000000
0.392500,0.380900,-0.535300,-1.000000,0.000469,-0.000084
-0.179200,-0.303900,0.036290,0.000000,1.000000,0.000000
-0.052190,-0.303900,0.617000,0.000000,1.000000,0.000000
-0.422400,-0.172300,0.281300,-0.993400,-0.114800,0.000091
-0.397200,-0.365000,0.803100,0.783300,0.049700,0.619600
-0.242800,-0.008110,-0.680500,0.060570,-0.998200,0.000000
0.384000,0.128100,-0.335700,0.990900,-0.134800,0.000000
-0.070330,-0.181400,-0.825500,0.000000,0.000000,1.000000
0.244200,0.107600,0.317600,-0.978000,0.208500,0.000000
0.323900,-0.099460,0.824500,0.000831,-0.000072,-1.000000
-0.079410,-0.001638,0.254000,0.029900,0.999600,0.000000
0.210200,-0.022460,0.562500,-0.151100,0.988500,0.000000
-0.419800,-0.172400,-0.308500,0.999800,-0.018360,0.000000
0.056710,-0.024700,-0.145100,0.004803,1.000000,0.000000
0.020420,-0.024700,-0.281200,0.000000,1.000000,0.000000
0.047630,-0.024700,-0.480800,-0.000004,1.000000,-0.000004
-0.224600,-0.024700,-0.308500,0.000000,1.000000,0.000000
-0.161000,-0.254000,0.827400,0.000000,0.000000,1.000000
0.299500,0.370500,-0.245000,-0.978000,0.208500,0.000000
-0.260900,-0.303900,0.562500,0.000000,1.000000,0.000000
0.238100,-0.303900,-0.517200,0.000000,1.000000,0.000000
-0.124700,-0.305700,0.689600,0.000000,-1.000000,0.000000
-0.206400,-0.305700,0.353900,0.000000,-1.000000,0.000000
-0.224500,-0.305700,0.544400,0.000000,-1.000000,0.000000
-0.224600,-0.303900,-0.607900,0.000000,1.000000,0.000000
0.138400,-0.305700,-0.453600,0.000000,-1.000000,0.000000
0.392400,0.254100,-0.580600,-1.000000,0.000000,0.000000
0.392400,0.254100,-0.326600,-1.000000,0.000000,0.000000
0.074830,-0.303900,-0.272200,0.000000,1.000000,0.000000
-0.024970,-0.303900,-0.172400,0.000000,1.000000,0.000000
-0.115700,-0.303900,-0.027220,0.006094,1.000000,-0.003074
-0.061260,-0.303900,-0.607900,0.000000,1.000000,0.000000
0.074860,-0.305700,-0.689500,0.000000,-1.000000,0.000000
-0.052160,-0.305700,-0.181400,0.000000,-1.000000,0.000000
