-0.177800,0.296800,0.643300,0.012750,0.003174,0.999900
0.440200,0.211700,0.486900,0.973300,0.041790,-0.225800
-0.092940,0.153200,-0.388700,0.012360,0.999400,-0.031770
-0.238200,0.103500,0.090650,-0.909200,0.078240,0.409000
0.266900,0.648900,0.645500,-0.012710,0.102900,0.994600
-0.179100,-0.333200,-0.233100,-0.884900,0.179100,0.430000
0.285300,0.665700,0.552900,0.005421,1.000000,0.004475
0.018760,-0.627200,0.568500,0.096330,-0.150300,0.983900
-0.335700,0.071870,-0.341900,-0.942300,0.293300,-0.161600
0.064420,-0.607600,0.236400,0.963500,0.267100,-0.016620
-0.193300,-0.726000,0.020330,0.018160,-0.999800,-0.004523
0.123800,0.062410,0.410600,0.719100,-0.601800,-0.347600
-0.151100,-0.298000,-0.480000,-0.915200,0.098620,-0.390800
-0.270200,0.016320,-0.560200,-0.856400,0.181600,-0.483400
0.422800,0.281600,0.429300,0.955900,0.040120,-0.291000
0.035990,-0.161400,0.496800,0.556700,0.628400,0.543300
-0.146400,-0.385400,-0.521300,-0.864900,0.176500,-0.470000
0.338700,-0.050910,-0.108300,0.905500,-0.316800,0.282500
-0.038710,-0.090510,0.518100,-0.077490,-0.929300,0.361100
0.229100,0.033460,-0.616300,0.767400,0.227000,-0.599600
0.015550,-0.598600,0.012580,0.999800,-0.015670,0.013470
0.427100,0.621000,0.561100,0.995100,0.000032,-0.098830
-0.101500,-0.663200,-0.650900,-0.561500,0.210800,-0.800200
0.054180,0.626700,0.646200,-0.019400,0.025080,0.999500
-0.436100,0.281200,0.476700,-0.973600,0.045500,-0.223600
0.038340,0.528400,0.644400,0.013440,-0.000033,0.999900
-0.316600,-0.034610,0.306100,-0.094930,-0.985800,-0.138600
-0.036630,-0.272200,0.158200,-0.320000,0.513300,-0.796400
-0.255500,0.104100,-0.561100,-0.818900,0.313700,-0.480700
0.102800,-0.687200,0.548500,0.703200,0.304900,0.642300
-0.230600,-0.726700,0.066490,-0.127400,-0.991800,-0.001297
-0.018230,0.668300,0.627000,-0.001875,0.989100,0.147600
0.138700,-0.668200,0.305900,0.036950,0.999200,0.015170
-0.056880,0.167500,0.109200,0.007530,0.818600,0.574400
0.075520,-0.445300,-0.010550,0.924500,-0.381100,0.003318
-0.014380,-0.421000,0.275000,-0.997500,-0.049900,0.049530
-0.103400,-0.286100,-0.108700,-0.856300,-0.510500,-0.078290
-0.351500,0.021480,0.317800,-0.633700,0.006535,-0.773500
-0.084440,-0.069460,0.566700,-0.162700,-0.921500,0.352700
-0.056790,-0.580300,0.313800,-0.798800,0.599800,-0.047400
0.254200,-0.033620,0.120600,0.117000,-0.993000,0.013800
-0.201500,-0.433400,-0.247200,-0.960700,0.148400,0.234500
-0.450100,0.211700,0.553300,-0.996400,0.041640,-0.074260
0.198800,-0.335100,-0.303100,0.971700,-0.194100,-0.134500
-0.162800,-0.554500,-0.553000,-0.831400,0.165900,-0.530400
0.181500,0.597400,0.312400,0.249100,0.101500,-0.963100
0.118700,-0.668700,-0.638800,0.655300,0.226800,-0.720500
-0.067900,-0.058090,0.290600,-0.989600,-0.107100,-0.096330
-0.086220,0.581100,0.646200,0.028780,-0.019490,0.999400
0.233800,-0.233000,-0.149400,0.870300,-0.478600,0.116700
-0.134700,0.088540,0.185700,0.006719,0.982700,0.185000
0.324200,0.136300,-0.253100,0.776000,0.630700,-0.001543
-0.029130,-0.180100,0.109100,-0.689500,-0.698400,0.192000
-0.154600,0.068890,0.537400,-0.016540,-0.999600,0.022290
-0.049890,0.054280,0.637000,-0.213100,-0.235400,0.948200
0.092290,0.077660,0.213600,-0.096140,0.994000,0.052550
0.057780,-0.583200,0.543200,0.873700,0.012210,0.486300
-0.186300,-0.175100,0.036750,-0.480100,-0.452000,0.751800
-0.412000,0.028910,0.386700,-0.886800,0.014500,-0.461900
0.105200,0.115700,0.129200,0.007245,0.253400,0.967300
-0.123500,-0.666300,-0.018700,-0.041530,0.996000,0.078880
-0.150500,-0.215900,-0.571100,-0.614700,-0.662300,-0.428400
0.324500,-0.033140,-0.045800,0.922600,-0.208000,0.324900
0.433300,-0.029720,0.442200,0.884600,-0.211500,-0.415600
-0.225900,0.564600,0.321500,-0.307100,0.063890,-0.949500
0.448700,0.250200,0.606300,0.997900,0.052140,0.039420
0.029030,-0.450700,0.165100,0.428800,-0.820600,0.377900
0.390600,-0.035630,0.500400,-0.202300,-0.978800,0.032840
0.099550,-0.499100,-0.611600,0.652300,0.198500,-0.731500
-0.130400,0.668000,0.424000,0.032420,0.997100,-0.068960
0.070570,-0.335700,0.256900,0.813500,-0.274100,0.512900
0.219500,0.160300,0.025270,0.486000,0.870300,0.079680
0.030600,0.227300,0.644300,-0.016220,-0.017960,0.999700
-0.337300,0.084100,0.312200,-0.418100,0.440600,-0.794400
-0.146900,0.096130,0.643500,0.011240,0.014000,0.999800
-0.204100,-0.228600,-0.070870,-0.390800,-0.900200,0.192000
-0.161400,-0.120000,-0.657200,-0.577300,-0.464600,-0.671500
0.125600,-0.027060,0.453600,0.978000,-0.033000,-0.206000
-0.332200,0.127000,0.644300,0.002591,0.000000,1.000000
-0.067590,-0.529100,0.513800,-0.987200,-0.010120,0.159100
-0.318200,0.201500,0.337000,-0.394300,0.037890,-0.918200
0.067140,-0.042600,0.244100,0.991600,-0.127300,-0.021860
-0.272100,0.132000,0.314200,-0.316200,0.105600,-0.942800
-0.306200,-0.165200,-0.274900,-0.821200,-0.564400,-0.084340
0.281300,0.143100,-0.075360,0.367400,0.925800,0.089220
-0.235100,-0.720600,-0.449500,-0.974600,0.007008,-0.223900
0.098300,-0.012830,-0.739600,0.389500,0.144800,-0.909600
-0.312700,-0.087660,-0.066320,-0.875200,-0.321400,0.361500
0.199200,0.211700,0.295600,0.224300,0.037610,-0.973800
0.113400,0.110900,-0.696200,0.391600,0.228100,-0.891400
0.188800,-0.212700,0.018280,0.872300,-0.045320,0.486900
-0.247300,0.389500,0.643700,-0.001250,0.029190,0.999600
0.011560,-0.498200,0.360000,0.999700,0.014200,-0.017840
-0.361700,0.003370,-0.226800,-0.986400,0.159600,0.040350
-0.231900,0.489800,0.643600,-0.034450,-0.003019,0.999400
-0.200900,-0.725100,-0.257600,-0.000345,-1.000000,-0.002034
-0.092300,-0.584200,-0.110800,-0.272300,0.182900,0.944600
-0.000237,-0.725100,-0.334700,-0.001166,-1.000000,-0.000324
-0.370800,0.312200,0.644300,-0.024000,0.007144,0.999700
-0.177800,0.505200,0.643600,0.030270,-0.020440,0.999300
0.100100,-0.725700,-0.056870,-0.000367,-1.000000,-0.002051
-0.085170,-0.725400,-0.172700,-0.000324,-1.000000,-0.002073
-0.023420,-0.726100,0.159200,-0.000345,-1.000000,-0.002030
0.015120,0.646100,0.298100,0.020150,0.238100,-0.971000
-0.139200,-0.725900,0.120600,-0.000389,-1.000000,-0.002075
0.092420,0.153900,-0.334600,-0.012380,0.999900,-0.010060
0.295200,0.062410,0.002191,0.903800,0.303100,0.302100
-0.085160,-0.726700,0.491100,-0.000454,-1.000000,-0.002138
0.373300,0.094240,0.342500,0.595200,0.283700,-0.751800
0.067570,-0.621900,0.367700,0.998200,0.059400,0.002227
0.370100,0.663300,0.483400,0.030280,0.999500,-0.000149
0.068640,-0.297500,0.498800,0.998400,-0.023120,0.051700
-0.070800,-0.623400,0.430700,-0.999000,0.042340,-0.014040
-0.098580,-0.014200,0.375000,-0.893300,-0.067810,-0.444300
-0.146100,0.126600,0.279200,-0.181600,0.115800,-0.976500
-0.080780,-0.480800,-0.622700,-0.563300,0.178600,-0.806700
-0.144900,-0.654200,-0.097520,-0.232900,0.897100,0.375400
-0.294900,-0.138800,-0.408200,-0.848700,-0.447400,-0.282000
-0.349400,0.061610,-0.234400,-0.939900,0.341500,0.002348
0.242700,-0.223000,-0.265200,0.534200,-0.844100,-0.046330
0.200000,-0.676600,0.230700,0.645200,0.757800,0.097520
0.099960,0.173300,0.276100,0.128700,0.036230,-0.991000
0.154100,-0.726600,0.375400,-0.000756,-1.000000,-0.002245
0.427200,0.435400,0.476700,0.972000,0.083270,-0.219900
0.206700,0.528100,0.312000,0.225900,0.053690,-0.972700
0.084340,-0.665700,0.058880,0.060730,0.998000,0.015180
-0.162400,-0.668000,0.043450,-0.015670,0.999800,-0.010950
-0.442000,0.404500,0.599200,-0.998500,0.053730,0.007675
-0.123500,-0.669300,0.475600,-0.172700,0.983100,0.061060
0.316900,0.033180,-0.449800,0.924800,0.212300,-0.315800
0.239000,0.312300,0.643600,0.000761,-0.007242,1.000000
0.285300,0.404900,0.643500,-0.007607,0.018020,0.999800
-0.270400,0.335400,0.643800,0.031390,-0.025400,0.999200
0.238900,-0.724900,-0.381100,0.055150,-0.998300,-0.018720
-0.446100,0.119200,0.491600,-0.982900,0.039290,-0.180100
0.131000,-0.725000,-0.558600,0.004016,-1.000000,-0.002591
-0.184200,-0.484300,-0.480400,-0.921800,0.169600,-0.348500
0.038350,-0.726400,0.321400,-0.000756,-1.000000,-0.002245
0.084640,0.242800,0.644200,0.004945,-0.000043,1.000000
-0.054280,-0.725000,-0.597200,-0.000583,-1.000000,0.000324
0.021920,-0.484300,0.051120,0.942100,-0.334300,0.024620
-0.231900,0.068250,0.614600,0.012780,-0.999500,0.029730
-0.108400,0.149300,-0.512300,-0.005940,0.999800,-0.017740
-0.077330,0.668700,0.606800,-0.028800,0.999000,0.035210
-0.092870,-0.725100,-0.280700,-0.000389,-1.000000,-0.002074
0.038330,-0.726800,0.529700,0.000000,-1.000000,0.000000
0.107800,0.127000,0.644100,0.001320,-0.003541,1.000000
-0.355300,0.582400,0.645700,-0.026020,0.001606,0.999700
0.262200,0.528400,0.643500,0.017510,0.021530,0.999600
0.038290,0.670100,0.452700,0.020630,0.999300,-0.029900
0.443400,0.366000,0.606400,0.997900,0.045900,0.045080
0.130300,0.358300,0.287500,0.129800,0.043090,-0.990600
0.322400,-0.041120,-0.449500,0.862000,-0.405200,-0.304600
0.366800,0.312400,0.364900,0.453800,0.040960,-0.890100
0.432300,0.521000,0.553600,0.996500,0.030800,-0.077940
0.112200,-0.444800,-0.586200,0.714700,0.181800,-0.675300
-0.252900,0.160100,-0.157500,-0.327500,0.943000,0.059460
-0.162300,0.069470,0.359900,-0.006865,-1.000000,0.000889
0.255700,-0.714800,-0.234600,0.997700,0.066790,0.010690
0.324300,-0.118900,-0.150400,0.912700,-0.373200,0.166500
-0.000319,-0.313300,-0.617900,-0.000740,0.128100,-0.991800
0.395800,0.188500,0.374900,0.503300,0.041990,-0.863100
0.067060,-0.575600,0.429500,0.995300,0.074570,-0.062290
0.345300,0.058400,-0.178900,0.949700,0.297700,0.096680
0.092380,0.148500,-0.527700,-0.039440,0.997900,-0.051450
-0.147000,0.153200,-0.404100,0.035070,0.999300,-0.013030
-0.123700,-0.725800,0.043480,-0.000345,-1.000000,-0.002030
-0.278100,0.665500,0.491100,-0.036810,0.998900,-0.028470
0.169600,-0.725500,-0.149500,-0.000345,-1.000000,-0.002030
-0.004830,0.126100,-0.721200,-0.029740,-0.362000,-0.931700
-0.035980,-0.255000,-0.622500,-0.213300,-0.504200,-0.836800
-0.055740,-0.192000,0.500900,-0.740400,0.408700,0.533600
-0.106800,0.079690,-0.709800,-0.389000,0.285600,-0.875900
-0.029350,-0.543400,0.388300,-0.413000,0.786600,-0.459000
0.105300,-0.234800,0.111200,0.386300,-0.621000,0.682000
-0.083330,-0.020340,-0.747000,-0.304300,0.092470,-0.948100
-0.106000,-0.266500,-0.565300,-0.723700,-0.394900,-0.566000
-0.300200,0.147000,-0.311500,-0.356800,0.933700,-0.031280
-0.212500,-0.208500,-0.471700,-0.643700,-0.708600,-0.288900
0.214600,-0.572700,-0.217600,0.871900,0.208200,0.443200
0.452700,0.026630,0.522400,0.989700,-0.007152,-0.142700
-0.210500,0.224600,0.299000,-0.255800,0.038490,-0.966000
0.060230,0.028140,0.628600,0.347200,-0.149000,0.925900
-0.115700,-0.157500,0.084030,-0.317300,-0.502400,0.804300
-0.198000,0.095000,-0.640500,-0.667900,0.288100,-0.686200
0.091940,-0.666000,0.259600,0.085550,0.996300,0.001657
0.195000,0.003774,0.228400,-0.983900,-0.119200,0.132900
-0.357800,0.043720,0.450600,0.934800,-0.158500,0.317900
0.276300,0.335200,0.324800,0.349600,0.039980,-0.936000
-0.222200,0.079300,0.135500,-0.421000,0.797000,0.433000
0.125900,0.057920,0.559400,0.842900,-0.416400,0.340800
-0.121600,-0.110200,-0.693800,-0.486100,-0.462800,-0.741300
-0.053660,-0.669500,-0.673400,-0.237200,0.193200,-0.952100
0.223100,-0.556700,-0.367000,0.974900,0.163200,-0.151400
0.416100,0.600400,0.635100,0.506300,0.000079,0.862300
0.194800,0.003673,0.128500,-0.993900,-0.097830,-0.050920
-0.012360,-0.405600,0.344400,-0.999800,-0.005236,0.021260
-0.064590,0.115800,0.129600,-0.007261,0.271700,0.962400
-0.151300,-0.252500,-0.139400,-0.269700,-0.961300,0.056900
-0.068440,-0.228500,0.404100,-0.833600,-0.515800,-0.197700
0.200400,-0.726000,0.097500,-0.003636,-1.000000,-0.002548
0.174500,-0.057120,-0.678900,0.612600,-0.312000,-0.726300
0.053450,-0.058510,0.602100,0.050860,-0.905300,0.421700
-0.100300,-0.666700,0.344500,-0.071490,0.997200,0.019590
-0.231500,-0.676300,-0.034000,-0.704200,0.706900,0.065910
0.043820,-0.608900,-0.094240,0.179700,0.269600,0.946100
-0.071140,-0.011200,0.182400,-0.992000,-0.124500,0.019630
0.061220,-0.080150,0.543700,0.066080,-0.940000,0.334700
-0.283800,0.643200,0.349600,-0.358700,0.196200,-0.912600
0.018670,-0.654200,-0.002859,0.884500,0.466600,0.006974
0.207900,-0.307800,-0.077360,0.736500,-0.628100,0.251100
0.435700,0.108900,0.639100,0.319500,0.013310,0.947500
0.067250,-0.475100,0.514000,0.992400,-0.007556,0.122900
-0.038480,-0.369300,0.252700,-0.191500,-0.541100,0.818800
-0.082680,-0.427800,0.012590,-0.962600,-0.270900,-0.002187
0.329600,0.087840,-0.134300,0.971800,0.190300,0.139500
0.121500,-0.027030,0.131900,0.384700,-0.081050,0.919500
-0.107700,-0.329300,-0.159400,-0.555600,0.183200,0.811000
-0.441100,0.075430,0.463800,-0.967700,0.024450,-0.251100
-0.033490,-0.220700,0.189600,-0.338200,0.526900,-0.779800
-0.155600,-0.496600,-0.545700,-0.835400,0.170700,-0.522500
0.146400,0.149600,-0.620400,-0.041690,0.998900,0.021050
0.171200,-0.158800,0.059230,0.499100,-0.388600,0.774600
-0.006117,-0.127300,0.613400,-0.385800,-0.192300,0.902300
-0.344300,-0.088020,-0.249800,-0.939700,-0.341900,-0.011880
0.183400,0.002300,-0.680300,0.641000,0.211600,-0.737800
0.188600,-0.352200,-0.372500,0.965800,0.172600,-0.193400
0.012770,-0.513600,0.182300,0.998800,-0.036560,0.033660
0.233100,-0.068270,-0.606000,0.786000,-0.327700,-0.524300
-0.030080,-0.279300,0.560000,-0.542900,0.202000,0.815100
0.389900,0.026900,0.640400,-0.645800,-0.095990,0.757400
-0.208600,0.181000,0.643400,0.037210,0.013720,0.999200
0.166900,0.600300,0.646200,-0.008868,0.000026,1.000000
-0.239600,0.067830,0.437200,0.008096,-0.999900,-0.007319
0.195400,-0.686200,0.289600,0.915600,0.367100,0.163700
-0.177800,0.068310,0.491100,-0.002816,-1.000000,0.009118
0.161800,-0.725100,-0.473700,0.004016,-1.000000,-0.002526
-0.069620,-0.664900,-0.003023,-0.038150,0.998100,0.048120
0.146400,-0.726000,0.105200,-0.000777,-1.000000,-0.002267
-0.077470,0.412600,0.643600,-0.014370,0.000121,0.999900
-0.185600,0.164000,-0.080000,-0.015940,0.999900,0.006512
-0.285900,0.067520,0.468000,0.002508,-1.000000,0.001310
-0.354400,0.009849,-0.326600,-0.969800,0.174500,-0.170200
-0.447700,0.296800,0.583800,-0.998900,0.045640,0.006387
-0.209300,0.031520,-0.644600,-0.741800,0.228800,-0.630400
-0.323900,0.002277,0.391700,0.737500,-0.126500,0.663400
-0.020360,-0.168500,0.158700,-0.608400,-0.704300,0.365700
-0.085040,0.670100,0.545100,0.002654,0.999700,-0.024940
0.059090,-0.127300,0.283100,0.987700,-0.020960,-0.154700
0.100400,-0.057750,0.388100,0.892300,-0.092240,-0.441900
-0.055980,-0.598600,0.548500,-0.876400,0.003996,0.481600
-0.332900,-0.061160,-0.391900,-0.916500,-0.315600,-0.245700
0.250200,-0.012770,-0.602300,0.851600,0.148200,-0.502700
-0.088540,0.107500,0.267700,-0.070650,0.357300,-0.931300
0.345400,-0.064440,-0.326300,0.929400,-0.321700,-0.181100
0.321100,0.109200,-0.365100,0.921500,0.333200,-0.199700
0.242400,-0.661000,-0.357200,0.971000,0.160600,-0.177100
0.084550,0.662900,0.322200,0.034190,0.983000,-0.180500
-0.186700,-0.075730,0.087450,-0.511600,-0.349800,0.784800
-0.372200,0.055860,0.521300,0.930000,-0.354300,0.097670
0.037210,-0.383100,-0.624400,0.267700,0.169800,-0.948400
0.083900,-0.356200,0.145900,0.966400,0.229300,-0.116200
0.071450,-0.242100,0.445800,0.966100,-0.219600,-0.135800
0.239000,0.666100,0.583700,0.044630,0.998900,0.013590
0.427600,0.510300,0.633100,0.729900,0.022100,0.683200
0.176500,-0.441200,-0.477800,0.911600,0.203200,-0.357400
0.307500,-0.158900,-0.295700,0.828000,-0.552900,-0.092900
-0.044340,-0.452900,0.446800,-0.551200,0.057990,-0.832300
-0.009372,-0.235700,0.074240,-0.999300,-0.021670,0.030250
0.119700,-0.207200,-0.615200,0.520100,-0.638500,-0.567200
-0.200000,-0.671200,0.143700,-0.225700,0.973800,0.027380
-0.124600,-0.721300,0.531700,-0.801000,0.061770,0.595500
-0.122100,0.032120,0.420800,-0.930400,-0.073450,-0.359100
-0.169500,0.668100,0.514700,-0.058230,0.997300,0.045250
-0.262700,0.157800,-0.367600,-0.165000,0.981700,-0.094730
0.192700,0.077130,0.182400,0.004261,1.000000,-0.003619
-0.293500,0.651300,0.644700,-0.011000,0.289200,0.957200
0.038890,-0.551400,-0.105100,0.167300,0.171300,0.970900
0.228200,-0.193700,-0.472300,0.642600,-0.711600,-0.284100
0.093870,0.019160,0.361300,0.900800,-0.077360,-0.427400
-0.406100,0.590500,0.639900,-0.332000,-0.004894,0.943300
0.076620,-0.240900,0.220500,0.889900,0.288100,-0.353700
-0.324400,0.075410,-0.391900,-0.962200,0.147800,-0.228900
0.187700,0.323700,0.297500,0.224300,0.040530,-0.973700
-0.250700,-0.035940,0.297700,0.020770,-0.999700,0.010700
-0.068340,-0.297900,0.006490,-0.442500,-0.065890,0.894400
-0.309800,0.143000,-0.215200,-0.297200,0.954500,0.025850
-0.226600,-0.118600,0.037830,-0.615100,-0.335600,0.713500
-0.436400,0.088350,0.639500,-0.306300,0.013530,0.951800
0.153900,0.660400,0.322300,0.066230,0.950200,-0.304600
0.126200,-0.532400,-0.132700,0.435400,0.162800,0.885400
0.123500,0.053710,0.182400,-0.080910,-0.996700,0.010230
-0.286500,-0.184100,-0.124900,-0.822700,-0.526000,0.215500
-0.237400,-0.599000,-0.296200,-0.982500,0.185300,0.017340
0.037940,0.100100,-0.721600,0.089010,0.285400,-0.954300
0.091020,-0.599300,-0.107600,0.288400,0.201400,0.936100
0.380800,0.366000,0.374600,0.470800,0.043600,-0.881200
-0.222700,0.151900,-0.534500,-0.151200,0.981600,-0.116600
0.377900,0.047120,0.565900,-0.979000,-0.187500,0.080220
-0.206900,-0.611800,-0.187300,-0.729100,0.306200,0.612100
0.050420,0.128200,0.122700,-0.010950,0.742800,0.669400
-0.069580,-0.289800,0.491100,-0.998400,-0.053200,-0.019110
0.160200,-0.677400,0.423000,0.708100,0.671300,0.219100
0.445600,0.072940,0.483800,0.978800,0.017840,-0.203800
-0.409600,-0.004148,0.642700,0.018090,-0.015450,0.999700
-0.453500,0.142400,0.560800,-0.996600,0.041660,-0.071530
0.230400,-0.218900,-0.081110,0.763300,-0.611900,0.207200
0.177500,0.151700,-0.519900,-0.055040,0.998000,-0.032420
0.239100,0.156000,-0.442800,-0.046510,0.998900,-0.010840
0.455600,0.097720,0.591900,0.998700,0.045860,0.023800
-0.124700,-0.205200,-0.613300,-0.509900,-0.644100,-0.570200
-0.394600,-0.036360,0.483300,0.088490,-0.995900,0.019630
0.291200,-0.171000,-0.341900,0.802900,-0.570600,-0.172600
0.221300,-0.003812,0.293500,-0.786200,-0.123400,0.605500
0.023720,-0.436800,0.438600,0.428400,0.056850,-0.901800
0.177300,0.366300,0.643900,-0.012410,-0.003555,0.999900
0.015160,0.474300,0.644400,-0.006205,0.003577,1.000000
-0.301300,0.296800,0.643500,0.003194,0.010730,0.999900
0.239100,0.068010,0.552900,-0.011280,-0.999900,0.000389
-0.131500,-0.724900,-0.373300,-0.000799,-1.000000,-0.001058
-0.046550,-0.725000,-0.481400,-0.001166,-1.000000,-0.000324
0.299100,-0.086910,-0.035700,0.843200,-0.309800,0.439300
0.084700,0.159600,-0.157000,-0.007597,0.999900,-0.010040
0.030620,-0.726300,0.244200,-0.000345,-1.000000,-0.002094
0.084650,-0.725300,-0.242100,-0.000324,-1.000000,-0.002073
-0.239500,0.665700,0.437100,0.001462,0.999300,-0.036120
0.151600,-0.592500,-0.580800,0.789900,0.175700,-0.587500
-0.179500,0.151000,-0.562600,0.069050,0.997500,0.012890
0.300800,0.157900,0.644200,-0.003824,0.010810,0.999900
-0.038850,-0.726400,0.313600,-0.000324,-1.000000,-0.002073
0.048140,-0.583200,-0.657700,0.265200,0.179100,-0.947400
0.277800,0.148600,-0.124300,0.339100,0.939600,0.046700
0.439300,0.412600,0.561600,0.998500,0.033980,-0.041910
0.290900,0.227200,0.326300,0.395700,0.035580,-0.917700
-0.203900,-0.445000,-0.380200,-0.971400,0.153400,-0.181400
-0.009170,-0.265000,0.114600,-0.999800,0.015880,-0.008502
0.119500,-0.160200,-0.659900,0.460100,-0.556000,-0.692300
-0.015540,0.551500,0.288000,-0.032520,0.117700,-0.992500
0.030570,0.466600,0.283500,0.045680,0.053110,-0.997500
-0.152600,-0.674600,0.436200,-0.468400,0.868000,0.164900
0.232000,-0.578600,-0.275600,0.971500,0.226900,0.069260
-0.038850,0.077870,0.213400,-0.002066,0.996300,-0.086210
0.326600,0.146000,0.337800,0.392800,0.095160,-0.914700
0.400700,0.597700,0.412300,0.934000,0.037510,-0.355300
-0.016190,-0.536700,0.082720,-0.999300,-0.025090,0.028270
-0.383700,0.605100,0.394900,-0.532700,0.088970,-0.841600
-0.129100,-0.004091,0.460800,-0.984500,-0.053010,-0.167200
-0.185300,-0.365800,-0.407300,-0.958100,0.173900,-0.227700
0.235600,-0.671600,-0.105400,0.676800,0.730600,0.090340
-0.127200,0.557500,0.297800,-0.178000,0.122700,-0.976300
-0.162400,0.167300,0.043630,0.003486,0.999300,-0.036230
0.162200,0.482600,0.299400,0.219600,0.052770,-0.974200
0.100200,0.147500,-0.643600,-0.051980,0.998200,0.029710
-0.309000,-0.160000,-0.167300,-0.839900,-0.531400,0.110700
-0.240100,-0.035510,0.088610,-0.087440,-0.994700,0.053430
0.042830,-0.067460,-0.743000,0.177100,-0.324400,-0.929200
0.270800,-0.159100,-0.437400,0.780700,-0.557700,-0.281800
0.179300,-0.214400,-0.526000,0.638700,-0.683100,-0.354200
0.331600,0.067500,0.576100,0.001203,-1.000000,0.001158
-0.346600,0.018300,-0.134800,-0.967200,0.162600,0.194900
0.344800,0.018490,-0.365100,0.959000,0.180800,-0.218300
-0.071980,-0.656900,0.506500,-0.833200,0.547900,0.074360
-0.457000,0.020870,0.562200,-0.997500,0.001711,-0.071280
-0.177800,-0.725600,-0.025990,0.002325,-1.000000,-0.002264
-0.275600,-0.201500,-0.226600,-0.596300,-0.802400,-0.024360
-0.054290,0.350800,0.644200,0.001021,-0.018030,0.999800
0.331600,0.281400,0.644100,-0.020580,0.014350,0.999700
-0.309000,0.389400,0.644200,0.003131,0.000022,1.000000
-0.054360,0.146200,-0.597100,0.022260,0.999500,-0.023620
0.363400,0.011700,0.453600,-0.927500,-0.148700,0.342900
-0.100600,-0.724900,-0.558600,-0.000432,-1.000000,0.000475
0.053790,-0.725900,0.066640,-0.000324,-1.000000,-0.002074
-0.023410,-0.725500,-0.103200,-0.000345,-1.000000,-0.002030
0.038280,0.670600,0.560500,0.006924,0.999800,0.020710
0.130500,0.134500,0.278000,0.126800,0.080760,-0.988600
-0.016130,-0.143200,0.568400,-1.000000,-0.001149,0.000484
-0.051880,-0.463300,0.089130,-0.389100,-0.909300,0.147400
0.393300,0.343100,0.643800,0.038450,0.000389,0.999300
0.146300,0.067560,-0.690900,0.593400,0.276600,-0.755900
-0.146000,0.296600,0.286900,-0.187100,0.041130,-0.981500
-0.436900,0.173200,0.461100,-0.970100,0.039040,-0.239700
-0.154300,-0.568600,-0.143600,-0.586000,0.149600,0.796400
-0.170100,-0.311600,-0.430300,-0.952600,0.138600,-0.270900
-0.119800,-0.047520,-0.722700,-0.460900,-0.365500,-0.808700
0.222100,0.620500,0.325700,0.293500,0.100000,-0.950700
-0.437100,0.327500,0.491800,-0.983000,0.045630,-0.178000
-0.017910,-0.482000,0.151100,-0.987800,-0.137500,0.072530
0.248200,-0.220800,-0.203000,0.567600,-0.823200,0.009589
0.278400,-0.123000,-0.471900,0.841800,-0.434200,-0.320700
0.059770,-0.607200,0.106600,0.906700,0.359500,-0.220500
-0.069560,0.235500,0.274500,-0.070640,0.037310,-0.996800
0.271400,0.040090,0.094890,0.963000,0.140000,0.230200
-0.355200,0.663600,0.414100,-0.042130,0.997000,-0.064470
-0.081800,-0.391900,-0.602800,-0.629200,0.163900,-0.759800
-0.097760,-0.304600,-0.064480,-0.961100,-0.273900,-0.035040
0.276000,0.139500,-0.488600,0.461600,0.866700,-0.189200
0.366200,0.481900,0.373100,0.458000,0.048220,-0.887600
-0.073210,-0.654600,0.136100,-0.896400,0.442900,-0.017440
0.170300,0.072980,0.640200,-0.007184,-0.813800,0.581200
0.325700,0.003464,0.297000,0.651500,0.002971,-0.758700
-0.069380,-0.490700,-0.120500,-0.186900,0.142700,0.972000
-0.248100,-0.145500,0.004118,-0.702600,-0.364700,0.611000
0.308700,-0.160900,-0.180900,0.878400,-0.475500,0.047840
-0.109000,-0.414600,-0.143300,-0.444600,0.146600,0.883700
0.242100,-0.721500,-0.018710,0.996300,-0.009193,0.084890
-0.208700,-0.726800,0.197800,-0.016390,-0.999900,-0.000855
-0.074650,-0.151900,0.405700,-0.951900,0.268300,0.148100
0.115200,-0.060600,-0.720000,0.464200,-0.303900,-0.832000
0.129500,0.026630,0.460500,0.983300,-0.041090,-0.177100
-0.124500,0.667900,0.598800,-0.060860,0.994700,0.083470
0.456500,0.042040,0.591400,0.998500,0.053340,0.008820
0.026690,-0.400500,0.570600,0.426800,0.009045,0.904300
0.298700,-0.147900,-0.096700,0.855400,-0.447900,0.260200
-0.157500,0.015130,0.120100,-0.402100,-0.043400,0.914600
0.289100,0.025770,-0.518300,0.877300,0.202100,-0.435300
0.039260,-0.259200,0.414400,0.279800,-0.630300,-0.724200
0.283800,0.543900,0.338400,0.396100,0.092300,-0.913600
-0.241600,-0.643500,-0.216400,-0.828800,0.503400,0.244200
0.013990,-0.444100,0.244100,0.996600,-0.064830,0.050020
0.424900,0.173100,0.425700,0.945400,0.016530,-0.325600
-0.177800,0.168700,0.089870,-0.000495,0.999900,-0.016210
0.294400,-0.033990,-0.523300,0.873000,-0.223100,-0.433700
-0.276500,0.515400,0.309100,0.497600,0.424300,-0.756600
-0.064340,-0.429900,0.179200,-0.480000,-0.784500,0.392700
-0.221700,-0.187100,0.002194,-0.595700,-0.549400,0.585900
-0.153500,-0.305700,-0.203900,-0.712000,0.142400,0.687600
-0.159400,0.445600,0.296700,-0.231300,0.050090,-0.971600
0.081070,-0.306600,0.184300,0.874400,0.281000,-0.395600
-0.285000,0.140200,-0.049430,-0.397200,0.910200,0.117500
-0.123800,0.067400,0.313400,0.004657,-0.995900,0.090220
-0.254700,-0.698800,-0.265300,-0.993900,0.110300,-0.004403
-0.187500,-0.176500,-0.576600,-0.678600,-0.546100,-0.491200
-0.069130,-0.629600,0.267300,-0.993200,0.116600,-0.000625
-0.391900,0.506200,0.388400,-0.702700,0.049560,-0.709700
-0.176900,0.092470,0.140400,-0.514500,0.550200,0.657800
0.241000,0.080840,-0.592700,0.809100,0.059870,-0.584700
0.153900,-0.294000,-0.470500,0.930200,0.081320,-0.357900
0.425200,0.536300,0.501700,0.990000,0.074040,-0.120300
0.434200,0.450900,0.627200,0.922300,0.031770,0.385200
-0.192100,-0.239800,-0.119000,-0.286000,-0.954600,0.083170
-0.067950,-0.382500,0.513900,-0.990500,0.003959,0.137600
-0.333500,0.100400,-0.304200,-0.960300,0.270000,-0.069910
0.119700,-0.174600,0.110900,0.808400,0.263100,0.526500
0.270300,0.073570,0.061020,0.717900,0.652300,0.243300
-0.385600,0.019050,0.598900,0.984000,-0.176200,0.024820
-0.068960,-0.095710,0.130300,-0.444100,-0.462800,0.767200
-0.183000,-0.281800,-0.365200,-0.988500,-0.037570,-0.146700
-0.092830,0.073400,0.640100,-0.006727,-0.800000,0.600000
-0.222100,0.161400,0.004570,-0.396900,0.916600,0.047970
-0.216400,0.667300,0.537500,-0.011440,0.999700,-0.019370
0.185000,0.066830,0.321100,-0.034300,-0.990800,0.131000
0.262600,-0.124400,-0.001824,0.723100,-0.291600,0.626200
0.073400,-0.218600,0.336100,0.921700,-0.366200,0.127600
0.053770,-0.726000,0.120700,-0.000345,-1.000000,-0.002029
-0.434600,0.126800,0.446700,-0.952000,0.037450,-0.303900
0.053790,0.157100,-0.242100,0.016390,0.999000,-0.041460
0.316200,0.664100,0.421800,0.034220,0.998400,-0.044090
0.079400,-0.174300,0.375300,0.999600,0.017630,0.021470
0.046070,0.149000,-0.496800,0.011290,0.999200,-0.039520
0.169600,0.156800,-0.303900,-0.019930,0.998600,-0.048360
0.154100,0.273700,0.643800,0.017700,0.014410,0.999700
-0.007976,-0.726200,0.213300,-0.000324,-1.000000,-0.002073
0.077030,0.039930,0.190200,0.988300,-0.152300,0.004312
-0.224300,0.159800,-0.265100,0.036700,0.999100,-0.022910
0.138700,-0.667800,0.174700,0.019120,0.999800,0.002226
-0.378500,0.358500,0.644000,-0.024440,-0.028640,0.999300
-0.108300,-0.726500,0.375400,-0.000345,-1.000000,-0.002030
0.308500,0.067490,0.483400,-0.000685,-1.000000,0.000229
0.099920,0.668100,0.599000,0.011450,0.998700,0.049930
0.215900,0.164400,-0.087730,-0.009880,0.999800,-0.017260
-0.429800,0.574700,0.599100,-0.999900,-0.003760,0.013920
0.007481,0.155500,-0.288400,-0.010010,0.999200,-0.038100
0.053770,0.165600,0.644400,-0.007601,0.021680,0.999700
0.053600,0.149900,0.270800,0.045930,0.056170,-0.997400
-0.238200,-0.225000,-0.165100,-0.401400,-0.915100,0.038390
0.192700,-0.725200,-0.373400,0.004054,-1.000000,-0.002545
0.338000,0.242600,0.347400,0.421700,0.037800,-0.905900
0.067980,0.040700,-0.738500,0.219300,0.231600,-0.947800
0.132800,0.050420,0.513700,0.980900,-0.174300,0.086910
-0.045730,-0.568300,-0.655800,-0.263600,0.173800,-0.948800
-0.122100,0.019070,0.561500,-0.927700,-0.031010,0.372000
-0.359700,-0.012480,-0.180900,-0.984700,0.123900,0.122300
-0.046130,-0.327200,0.058560,-0.309200,0.950000,0.043380
0.070290,-0.638200,0.481900,0.998200,0.048160,0.036490
0.200000,-0.394600,-0.277200,0.988500,0.108500,0.105400
-0.011250,-0.306600,0.415900,-0.889700,0.183700,-0.418100
-0.016250,-0.706300,0.591400,-0.099830,0.044570,0.994000
0.247200,-0.725100,-0.084010,0.475200,-0.853700,0.213000
-0.403100,0.237400,0.382100,-0.688800,0.033330,-0.724200
0.356900,0.025470,-0.219400,0.980300,0.189000,0.058310
0.047740,-0.230700,-0.637700,0.211400,-0.611400,-0.762500
-0.332800,0.011290,-0.418100,-0.940200,0.172700,-0.293600
0.225000,0.481800,0.314800,0.314900,0.050620,-0.947800
-0.363200,-0.036970,0.390700,0.020500,-0.999700,0.015270
0.231400,0.067420,0.344300,-0.080740,-0.987000,0.139000
-0.035300,-0.565500,0.197900,-0.435200,0.900100,-0.020640
0.195600,-0.483700,-0.441400,0.945000,0.181900,-0.271900
-0.139700,0.114300,-0.681200,-0.573600,0.068860,-0.816200
0.213600,-0.726500,0.212600,0.069570,-0.995100,0.070090
0.334400,0.101700,-0.211600,0.956400,0.286100,0.058130
0.172900,0.097970,0.275600,0.203100,0.589000,-0.782200
-0.038720,-0.070050,0.574700,-0.066310,-0.944200,0.322700
-0.411900,0.319800,0.400900,-0.924000,0.023070,-0.381800
0.095160,-0.317300,-0.015540,0.511000,-0.699300,0.499900
-0.450500,0.204000,0.613300,-0.987000,0.040510,0.155800
-0.137200,-0.250000,-0.535300,-0.692900,-0.599000,-0.401300
-0.139200,-0.726400,0.321400,0.009209,-1.000000,-0.003380
0.007473,-0.725200,-0.288400,-0.000368,-1.000000,-0.002055
-0.145500,-0.239800,-0.027340,-0.360200,-0.891000,0.276500
-0.031160,0.412600,0.644100,-0.041180,0.003600,0.999100
-0.023470,0.146500,-0.550800,0.038830,0.997700,-0.055780
0.202900,-0.437400,-0.372400,0.969200,0.183800,-0.164000
0.308500,0.528400,0.644200,-0.014580,0.000057,0.999900
0.061450,0.265900,0.275700,0.049900,0.038420,-0.998000
-0.154700,-0.668500,0.213300,-0.040720,0.999200,-0.005595
-0.054290,-0.726200,0.251900,-0.000345,-1.000000,-0.002030
-0.278100,0.067640,0.529800,0.007496,-1.000000,0.000989
0.007402,-0.714100,-0.688900,0.060170,0.173000,-0.983100
-0.217600,-0.493600,-0.281000,-0.982700,0.164000,0.085830
0.161900,0.161600,-0.134000,0.026900,0.997000,-0.072820
-0.177800,0.551400,0.644200,-0.018460,-0.113200,0.993400
-0.276800,0.018470,0.088620,-0.958300,0.114300,0.262100
0.330700,0.037210,-0.404900,0.939800,0.222100,-0.259800
0.292300,0.034080,0.268700,0.666000,0.050360,-0.744300
0.207400,0.103700,0.134200,0.122900,0.037740,0.991700
-0.240400,-0.719000,0.008335,-0.985400,0.149200,0.081770
-0.185500,0.664800,0.360100,-0.017560,0.998100,-0.058910
0.193000,0.150700,0.291700,0.217500,0.056770,-0.974400
-0.030470,-0.238500,0.375700,-0.137200,-0.985800,-0.096880
0.331500,0.037380,-0.092730,0.951200,0.137100,0.276500
-0.012140,-0.529200,0.267300,-0.999800,0.021870,0.002666
0.418900,0.011460,0.402100,0.884400,0.052070,-0.463800
0.079180,0.043220,0.251900,0.960100,-0.279500,0.008180
-0.100600,0.664900,0.337100,-0.025280,0.995000,-0.096670
0.216800,-0.323600,-0.173000,0.857100,-0.508300,0.083810
-0.051660,-0.141900,0.253700,-0.911800,-0.207000,-0.354600
-0.425800,0.544500,0.506800,-0.985600,0.117800,-0.121400
0.293100,-0.175900,-0.135200,0.815500,-0.562300,0.136900
-0.302400,0.018960,-0.494900,-0.906100,0.187400,-0.379300
0.192000,-0.666900,-0.049970,0.029370,0.996000,0.084750
0.322300,0.412400,0.348200,0.400400,0.046260,-0.915200
-0.304700,-0.056670,-0.479700,-0.873200,-0.333000,-0.355800
-0.069630,0.669500,0.421900,0.002249,0.999900,-0.011750
-0.000320,-0.529200,0.579200,-0.000752,0.021860,0.999800
0.120100,0.567000,0.297100,0.169000,0.057730,-0.983900
-0.016430,-0.228200,0.559700,-0.981100,0.042600,0.189000
-0.293700,0.104100,-0.477200,-0.893200,0.313400,-0.322500
0.138300,-0.348900,-0.142500,0.133100,-0.952500,0.273800
0.222000,0.583000,0.646400,-0.003672,0.012740,0.999900
-0.076740,-0.660200,0.383100,-0.704800,0.709400,0.000758
-0.416400,0.312200,0.641600,-0.148600,0.005247,0.988900
-0.038870,0.167800,0.066820,0.003510,0.999300,-0.038130
0.344400,0.660400,0.634600,0.036790,0.973300,0.226700
0.216700,-0.506300,-0.358300,0.974400,0.163500,-0.154500
0.055690,-0.269800,0.532600,0.794300,0.123100,0.594900
-0.015690,0.119300,0.644200,0.005993,-0.014930,0.999900
0.218600,-0.607200,-0.433800,0.956100,0.162100,-0.244100
-0.092680,0.636000,0.300700,-0.083720,0.129400,-0.988100
0.307500,-0.002156,-0.001456,0.927000,0.130100,0.351900
-0.235400,-0.222500,-0.316500,-0.495700,-0.864600,-0.082460
0.061990,-0.091730,0.224900,0.994400,-0.101900,0.028800
-0.225600,0.054140,0.312900,0.705700,-0.454700,0.543400
-0.200600,0.134600,0.292500,-0.217300,0.085630,-0.972300
-0.252500,0.132900,0.051460,-0.890400,0.209000,0.404300
-0.422000,0.389300,0.437800,-0.966700,0.039520,-0.252800
-0.014810,-0.066270,0.613000,-0.874400,-0.284600,0.392900
-0.077680,-0.292500,-0.589200,-0.649300,-0.002833,-0.760600
0.022390,-0.200400,0.169700,0.266400,-0.673600,0.689400
-0.327100,0.569300,0.359700,-0.447400,0.071340,-0.891500
0.255600,-0.164700,-0.021100,0.781600,-0.445700,0.436300
-0.231700,-0.576500,-0.335000,-0.982000,0.169200,-0.083570
-0.185500,0.077090,0.221100,-0.006043,0.998500,-0.053610
-0.185100,0.667300,0.468300,-0.025190,0.998300,-0.052550
0.385600,0.181000,0.644000,0.040080,-0.003181,0.999200
-0.012150,-0.459700,0.352200,-1.000000,0.004464,-0.003394
0.084210,-0.413800,0.090000,0.978500,-0.199300,0.053620
-0.114800,-0.118300,0.106700,-0.298600,-0.449000,0.842200
-0.162400,-0.668300,0.112900,-0.039320,0.998900,0.025780
-0.012020,-0.506000,0.313600,-0.999900,0.009939,-0.005471
0.352900,0.034020,-0.296000,0.978200,0.192800,-0.077250
0.071240,-0.660600,-0.047530,0.038310,0.971900,0.232400
0.185000,0.435700,0.643700,-0.003271,-0.014390,0.999900
0.177300,-0.726200,0.167000,-0.000756,-1.000000,-0.002245
0.168600,-0.356300,-0.454800,0.943600,0.164100,-0.287400
-0.046510,0.474200,0.284300,-0.037980,0.053590,-0.997800
-0.000282,0.163000,-0.056810,-0.032600,0.998500,-0.043580
0.007453,0.669800,0.406400,0.004332,0.999500,-0.031890
0.046070,-0.725700,-0.025990,-0.000324,-1.000000,-0.002073
-0.100600,-0.726100,0.174700,-0.000324,-1.000000,-0.002073
-0.085150,-0.725000,-0.388800,-0.001209,-1.000000,-0.000302
0.061500,-0.726400,0.282800,-0.000777,-1.000000,-0.002267
0.092230,0.669800,0.483400,0.010880,0.999900,-0.003338
0.115500,0.167300,0.043640,0.002013,0.999700,-0.024780
-0.239500,0.664500,0.383200,-0.002376,0.999000,-0.045730
-0.123800,0.173300,0.643800,-0.007393,0.028390,0.999600
-0.255000,0.528400,0.643800,0.022090,0.007678,0.999700
0.022920,-0.725100,-0.581700,-0.001188,-1.000000,-0.000281
0.100100,-0.725200,-0.311600,-0.001166,-1.000000,-0.000324
0.025080,-0.321200,0.077110,0.273100,0.959000,-0.075820
-0.324400,0.663200,0.614300,-0.033310,0.998900,0.031650
0.069200,-0.725200,-0.381100,-0.001190,-1.000000,-0.000346
-0.216400,0.666800,0.583800,-0.015640,0.999700,0.021000
-0.023350,0.612900,0.294300,-0.019260,0.103700,-0.994400
-0.075490,-0.020090,0.313300,-0.972900,-0.101000,-0.207900
-0.239600,0.068010,0.552900,0.011650,-0.999900,0.000495
0.423800,-0.004182,0.641900,0.108600,-0.004868,0.994100
0.184800,-0.669600,0.166900,0.099670,0.994900,0.013150
-0.139500,0.052970,0.213100,0.090290,-0.995100,0.041380
-0.162400,0.212200,0.644000,0.007996,-0.000444,1.000000
-0.169700,-0.396700,-0.476000,-0.917400,0.172900,-0.358600
0.022740,0.366100,0.278100,0.046120,0.045920,-0.997900
0.072860,-0.166200,-0.680900,0.325400,-0.556800,-0.764300
0.277600,0.081090,0.643900,-0.004918,-0.059840,0.998200
0.169400,-0.672900,-0.581200,0.817300,0.197100,-0.541400
-0.303600,-0.146600,-0.362400,-0.823300,-0.525300,-0.214900
-0.355200,0.663900,0.506600,-0.007391,1.000000,0.006148
0.036530,-0.562700,0.336900,0.443000,0.890700,-0.102100
0.191300,0.145900,-0.603800,0.291500,0.923200,-0.250400
0.440600,0.412000,0.606300,0.996000,0.085820,0.025580
-0.016490,-0.624300,-0.004704,-0.999900,0.013310,-0.002841
0.022910,-0.157500,0.207700,0.607400,-0.714800,0.346600
-0.247700,-0.144900,-0.514500,-0.771900,-0.505300,-0.385700
-0.131300,0.668600,0.537500,-0.039910,0.999100,0.016710
0.146200,-0.723600,0.493900,0.875700,-0.030300,0.482000
-0.006469,-0.312600,0.580300,-0.221400,-0.147700,0.963900
0.292800,0.662500,0.376100,0.058440,0.992000,-0.111600
-0.123100,-0.362400,-0.551100,-0.803200,0.153700,-0.575500
0.146400,0.150500,0.111600,-0.010320,-0.043910,0.999000
-0.260800,0.160100,-0.219200,-0.273500,0.961300,0.032440
0.059510,-0.171200,0.181300,0.441500,-0.457600,0.771800
-0.197300,0.638200,0.320800,-0.252500,0.128800,-0.959000
-0.198700,-0.654200,-0.135700,-0.253300,0.914700,0.314900
-0.338900,0.080490,-0.195900,-0.968600,0.243500,0.050170
0.076560,-0.204600,0.253000,0.929600,0.245400,-0.275000
-0.249400,-0.668900,-0.303600,-0.988900,0.135600,-0.060830
-0.022360,-0.452000,0.573700,-0.347600,0.037710,0.936900
-0.146900,-0.668600,0.298200,-0.047100,0.998900,0.002878
-0.205900,-0.134300,-0.595500,-0.721000,-0.446800,-0.529700
-0.216400,0.157400,-0.350200,0.032770,0.999000,-0.030430
0.281500,0.151400,-0.190900,0.332000,0.942900,0.025060
0.049690,-0.289400,0.046090,0.099160,-0.884800,0.455300
-0.081410,-0.235800,0.266800,-0.992400,0.006122,0.123200
0.411700,0.621000,0.461200,0.981700,0.001203,-0.190200
0.222000,0.412400,0.310200,0.299700,0.047310,-0.952900
-0.018700,-0.552200,-0.093010,-0.920400,0.086420,0.381300
-0.174000,-0.251500,-0.205300,-0.231300,-0.969100,0.085610
0.189500,-0.163700,-0.587100,0.677500,-0.544200,-0.494800
-0.239600,-0.034720,0.190100,-0.066070,-0.997800,-0.005056
-0.404200,0.461400,0.395200,-0.787100,0.038400,-0.615600
-0.286800,0.083840,0.014160,-0.904300,0.166600,0.393100
0.231900,-0.136500,-0.551900,0.774400,-0.450000,-0.444800
-0.016550,0.025890,0.638000,-0.080410,-0.088130,0.992900
-0.274900,0.026380,0.246400,-0.814100,0.077290,-0.575600
0.088120,0.609000,0.297400,0.084530,0.104700,-0.990900
-0.000262,0.258300,0.644500,-0.000021,0.000042,1.000000
-0.054290,-0.725400,-0.141800,-0.000367,-1.000000,-0.002051
0.007456,-0.726800,0.560600,0.000000,-1.000000,0.000000
0.138700,-0.725800,0.020330,-0.000367,-1.000000,-0.002051
0.084020,-0.093330,0.497800,0.149900,-0.946500,0.285900
0.012400,-0.405500,0.305800,0.999500,-0.011230,0.028470
0.115500,-0.726800,0.452600,-0.000777,-1.000000,-0.002202
0.203100,-0.339700,-0.257300,0.797300,-0.597400,-0.086220
0.262100,0.666100,0.514300,0.003299,1.000000,-0.001233
-0.146900,0.157500,-0.249900,0.024280,0.999400,-0.024760
-0.157000,-0.255200,-0.486100,-0.770000,-0.540200,-0.339600
-0.131500,0.335400,0.643600,-0.042340,0.024990,0.998800
-0.054280,0.156400,-0.265300,0.045710,0.998100,-0.041010
0.192800,0.155200,-0.381000,-0.049110,0.998700,0.014110
0.168800,0.265700,0.290800,0.222400,0.037010,-0.974200
0.316200,0.358500,0.644100,-0.021510,-0.018040,0.999600
0.103900,-0.667300,0.464800,0.072920,0.997300,0.005598
-0.046570,0.141000,-0.711300,-0.100200,0.912000,-0.397800
0.007461,0.671800,0.483500,0.006175,1.000000,-0.003506
0.200400,-0.725700,-0.049140,-0.000712,-1.000000,-0.002267
0.169500,-0.668300,0.082050,0.023140,0.999700,0.008548
-0.124000,0.052990,0.151500,-0.067520,-0.964200,0.256500
0.238800,0.076870,0.236700,0.062730,0.994700,-0.081900
0.131100,0.154200,-0.381000,-0.024090,0.999300,-0.027070
0.025920,-0.095220,0.509200,0.369500,-0.871500,0.322400
0.100000,0.312300,0.643700,-0.012890,0.014340,0.999800
-0.088310,0.055500,0.246100,-0.427400,-0.866900,0.256600
0.440300,0.354600,0.524200,0.986800,0.068280,-0.146900
-0.355500,0.075240,0.643000,0.005150,-0.340500,0.940200
0.168800,-0.353200,-0.180700,0.454600,-0.838500,0.300400
-0.332700,0.091000,-0.154200,-0.964300,0.212000,0.159000
0.235300,0.139200,0.080550,0.748400,0.580900,0.320000
-0.022540,-0.494200,-0.107600,-0.749300,0.172000,0.639500
0.290900,0.144900,-0.396000,0.371900,0.926000,-0.065560
-0.187000,-0.495200,-0.195400,-0.783100,0.153200,0.602800
0.089780,-0.725200,0.564800,0.378700,-0.778800,0.500000
0.039330,-0.568100,0.216700,0.567300,0.823400,0.014990
0.123200,-0.008854,0.555000,0.940700,-0.031690,0.337700
-0.333700,0.107300,-0.234400,-0.929400,0.368900,-0.005032
-0.169900,0.150000,-0.604800,-0.063990,0.995300,-0.073070
0.136200,-0.250600,0.080670,0.413000,-0.625600,0.661800
0.130500,-0.319100,-0.040290,0.113500,-0.938300,0.326800
0.271500,0.002763,-0.561800,0.866500,0.164500,-0.471300
0.421200,0.557600,0.633800,0.572500,0.231600,0.786500
0.233300,-0.198800,-0.035390,0.652200,-0.695100,0.302500
-0.046530,-0.179500,-0.678900,-0.186900,-0.570800,-0.799500
0.199900,-0.680300,-0.527600,0.906600,0.158100,-0.391200
0.113300,-0.591100,-0.622600,0.665100,0.186900,-0.723000
-0.309200,-0.026200,0.000486,-0.938200,-0.037110,0.344100
0.127800,0.017750,-0.718600,0.520000,0.196700,-0.831200
-0.249900,0.632200,0.645900,0.040200,-0.009707,0.999100
-0.370600,0.662800,0.614300,-0.031670,0.998000,0.054110
-0.281700,0.360900,0.328100,-0.362400,0.042010,-0.931100
-0.011130,-0.331300,0.359300,-0.959800,0.278100,0.039270
0.020340,-0.497000,-0.104100,0.898200,0.080140,0.432300
-0.224100,-0.035260,0.128400,-0.017140,-0.999800,0.008153
-0.193700,0.002901,0.205800,0.991500,-0.126000,0.032670
0.323900,0.067880,0.622200,0.004288,-0.998600,0.052250
0.170300,-0.667700,-0.010200,0.018710,0.999800,0.008218
-0.080420,-0.196600,0.313300,-0.990500,-0.123300,0.060050
0.045910,0.108200,0.265300,0.061130,0.337400,-0.939400
0.424300,0.582700,0.542300,0.989900,-0.023990,-0.139600
0.169300,-0.321700,-0.065370,0.181700,-0.940000,0.288700
0.081940,-0.258900,0.258900,0.978000,-0.020380,0.207400
0.332700,-0.115800,-0.249800,0.923300,-0.383900,0.007709
0.144700,-0.629900,-0.121900,0.508400,0.373100,0.776100
0.222000,-0.528800,-0.272600,0.977700,0.170500,0.122300
-0.316000,0.019070,-0.031760,-0.938800,0.139600,0.314900
0.108600,-0.395300,-0.142800,0.489500,0.096200,0.866700
0.431900,-0.037040,0.591500,0.024110,-0.999700,0.000138
-0.170100,-0.726700,0.290500,0.008983,-1.000000,-0.002318
0.015420,-0.296500,0.129400,0.594500,0.640500,-0.486000
0.124800,-0.252000,-0.552100,0.706800,-0.561100,-0.430800
0.054060,-0.259000,0.098650,0.074650,-0.821100,0.565900
-0.011560,-0.423400,-0.636200,-0.101600,0.173600,-0.979500
-0.413900,0.660600,0.591500,-0.172200,0.984900,-0.015860
0.076090,-0.070350,0.143400,0.647300,-0.176300,0.741600
-0.447900,0.031770,0.488900,-0.979600,0.011200,-0.200500
0.164800,-0.491400,-0.525300,0.877200,0.189300,-0.441200
0.123300,0.058430,0.259500,-0.028160,-0.985200,0.168800
0.440400,-0.034900,0.483800,0.529100,-0.842200,-0.103500
-0.426000,0.576700,0.547100,-0.991300,0.010170,-0.131500
-0.430800,0.458800,0.499100,-0.987500,0.062360,-0.145000
0.121000,-0.102100,-0.698500,0.486300,-0.397700,-0.778000
-0.433800,0.481800,0.626500,-0.944800,0.050720,0.323800
0.021520,-0.328000,0.433100,0.481900,-0.082180,-0.872400
0.291800,0.597500,0.347600,0.373300,0.097430,-0.922600
-0.070390,-0.641400,0.206200,-0.993400,0.114300,0.001277
-0.208200,-0.428800,-0.334800,-0.987300,0.138600,-0.077910
-0.169900,-0.655300,-0.575300,-0.825300,0.189100,-0.532100
-0.177800,0.666600,0.606900,-0.047880,0.996500,0.068330
-0.138800,0.613900,0.305100,-0.177700,0.104300,-0.978500
-0.055880,-0.200700,0.219300,-0.620700,0.473200,-0.625100
-0.016760,-0.622700,0.040650,-0.992700,0.067420,-0.099930
0.296600,0.381500,0.335400,0.399800,0.045740,-0.915400
0.015570,-0.166300,0.552900,1.000000,0.001975,0.003553
0.225900,-0.212600,-0.422500,0.654300,-0.728500,-0.202900
0.012340,-0.482600,0.220900,0.997900,-0.040730,0.049970
0.414500,0.365600,0.413000,0.944400,0.038360,-0.326700
-0.310200,0.136100,-0.119400,-0.775100,0.614200,0.148200
0.254700,0.160200,-0.303800,-0.009291,0.999700,-0.023990
0.018540,-0.505600,-0.033660,0.995300,-0.096340,-0.013950
0.073110,-0.449800,0.051000,0.889700,-0.455000,0.037090
-0.373600,0.506000,0.350600,-0.213100,0.898000,-0.385000
-0.023400,0.551400,0.644700,0.002282,-0.070820,0.997500
0.015990,-0.556900,0.016820,0.999900,-0.015450,0.007074
-0.427400,0.397200,0.637800,-0.447200,0.032420,0.893800
0.077180,-0.206800,0.421200,0.984800,-0.173000,0.012340
0.072710,-0.654500,0.159300,0.902000,0.431700,0.001211
-0.114300,-0.049390,0.131400,-0.361800,-0.190600,0.912600
0.171600,-0.260800,-0.437800,0.818900,-0.502100,-0.278000
0.130200,-0.667000,0.010200,0.027540,0.999500,0.012140
0.005669,-0.235000,0.594600,0.269000,-0.157300,0.950200
0.011280,-0.390200,0.375300,0.999400,-0.018020,0.028550
0.366000,0.567000,0.380700,0.526000,0.100700,-0.844500
-0.209700,-0.439600,-0.288700,-0.986400,0.144100,0.079180
-0.026130,-0.355100,0.437600,-0.379900,-0.098790,-0.919700
-0.124000,-0.698200,-0.643500,-0.651200,0.211200,-0.728900
0.269800,0.443700,0.643600,0.000305,-0.029670,0.999600
0.054370,0.559800,0.290400,0.046910,0.047950,-0.997700
0.059850,-0.490700,0.459700,0.885200,0.160800,-0.436500
0.028520,-0.535100,0.400600,0.425700,0.732300,-0.531500
0.248000,-0.671300,-0.190400,0.978600,0.182800,0.094560
-0.177900,-0.726200,0.136100,0.018190,-0.999800,-0.004467
-0.055030,-0.306200,0.142600,-0.606000,0.579300,-0.545100
0.313100,0.117800,-0.110500,0.818900,0.521700,0.239200
0.298300,0.003985,0.369500,-0.644100,-0.107500,0.757400
0.252600,0.146300,0.004201,0.432800,0.893000,0.123400
0.169500,0.068880,0.398600,0.007935,-0.999700,-0.023530
-0.000272,0.151500,-0.396300,-0.043160,0.998500,-0.032630
-0.085080,-0.662400,-0.041580,-0.034840,0.990900,0.130400
-0.263200,-0.106900,0.007811,-0.724200,-0.319500,0.611200
0.061560,0.161900,-0.079970,0.029270,0.997700,-0.060470
0.254500,0.068530,0.390800,-0.020510,-0.999700,-0.009641
0.038340,-0.725400,-0.188100,-0.000345,-1.000000,-0.002030
-0.038860,-0.726000,0.120600,-0.000388,-1.000000,-0.002072
0.053790,-0.725100,-0.628100,-0.000756,-1.000000,-0.000496
0.076950,-0.726600,0.375400,-0.000777,-1.000000,-0.002267
-0.161500,0.528200,0.301600,-0.226800,0.051950,-0.972600
-0.023420,-0.725200,-0.249800,-0.000324,-1.000000,-0.002071
-0.216400,0.281400,0.643800,-0.013440,0.028580,0.999500
0.192700,0.068140,0.475700,-0.003618,-1.000000,0.006839
0.192700,0.666900,0.452600,0.037630,0.999300,-0.004789
0.239100,0.068020,0.599200,-0.011190,-0.999900,0.000230
0.354800,0.497500,0.644000,-0.003089,0.007213,1.000000
0.123200,-0.725200,-0.489100,0.001468,-1.000000,-0.001446
0.138700,-0.726400,0.267300,-0.000777,-1.000000,-0.002267
-0.347600,0.458900,0.644300,0.005476,-0.017990,0.999800
-0.170100,-0.725300,-0.211300,-0.000324,-1.000000,-0.002073
-0.247300,0.227300,0.644000,0.002651,-0.021840,0.999800
-0.085180,0.162300,-0.103100,0.006726,0.999500,-0.031860
0.342300,0.450900,0.359200,0.440400,0.046910,-0.896600
-0.069640,0.671000,0.475800,-0.021530,0.999300,-0.029850
-0.000267,0.671800,0.545100,-0.029050,0.999500,0.007722
0.034370,-0.338800,0.564000,0.617400,0.031290,0.786000
0.352700,-0.035020,0.410800,-0.364600,-0.880400,0.303400
-0.000166,0.085030,-0.728300,0.026370,0.368700,-0.929200
0.115500,-0.725200,-0.442800,-0.001209,-1.000000,-0.000302
0.023280,-0.561700,0.177700,0.516700,0.852200,-0.082590
-0.437400,0.481900,0.576100,-0.997000,0.065160,-0.042560
0.046100,0.154600,-0.326900,-0.000176,0.999700,-0.023340
0.154300,0.151600,-0.473500,-0.003876,0.999900,-0.012680
-0.270300,0.474100,0.644100,0.003466,0.000486,1.000000
0.238900,0.663700,0.367900,0.057930,0.996900,-0.054020
0.038350,0.076790,0.174700,0.018030,0.999700,-0.014420
0.331600,0.664200,0.460300,0.031790,0.999400,0.015940
-0.381700,0.183400,0.366400,-0.459500,0.040770,-0.887200
-0.018610,-0.572100,0.106400,-0.779400,0.590600,-0.209000
-0.200800,-0.669600,0.058860,-0.110400,0.993900,0.002932
-0.014200,-0.367000,0.305800,-0.997100,-0.014510,0.074430
-0.131500,0.163800,0.112500,0.011270,0.221800,0.975000
-0.245900,-0.675900,-0.350100,-0.983400,0.136900,-0.118900
-0.191700,0.593400,0.646000,0.026770,0.014490,0.999500
0.065380,-0.666700,0.557100,0.447500,0.828900,0.335800
0.288800,-0.187800,-0.273000,0.663500,-0.745400,-0.064730
-0.074350,-0.335700,0.021820,-0.752500,0.550100,0.362100
0.128800,-0.298100,-0.524600,0.863900,0.060470,-0.500000
0.387600,0.442600,0.382500,0.518100,0.044590,-0.854200
-0.308000,0.112400,-0.069260,-0.792100,0.573500,0.208800
0.231500,0.160100,-0.265200,-0.024670,0.999000,-0.037170
0.334200,0.101600,-0.272800,0.956500,0.287400,-0.050040
0.190200,-0.128700,-0.620400,0.690300,-0.445900,-0.569800
0.185000,-0.724900,-0.520000,0.003840,-1.000000,-0.002371
0.278400,0.042630,0.358500,-0.621700,-0.138800,0.770900
0.013160,-0.306000,0.312500,0.966300,0.048270,0.253000
-0.278400,-0.144800,-0.445300,-0.801200,-0.511900,-0.309800
0.042770,-0.105300,-0.727200,0.179400,-0.453900,-0.872800
-0.169000,0.022810,-0.688100,-0.632200,0.214100,-0.744600
-0.033560,-0.475500,-0.028890,-0.337600,-0.941300,0.006832
-0.008223,-0.676900,-0.681800,-0.065420,0.187000,-0.980200
