-0.400300,0.501500,0.048220,0.000000,1.000000,0.000000
-0.444100,-0.156600,-0.188400,0.000000,-1.000000,0.000000
-0.207400,-0.497000,0.750000,-0.012740,0.015870,0.999800
-0.312600,0.501500,-0.635500,0.000000,1.000000,0.000000
0.517200,0.046430,0.495300,1.000000,0.000000,0.000000
0.055520,-0.584000,0.214800,0.000000,-1.000000,0.000000
-0.049650,-0.348000,0.750000,0.000000,0.000000,1.000000
0.134400,0.501500,-0.013140,0.000000,1.000000,0.000000
-0.137300,0.037660,0.751000,0.000000,0.000000,1.000000
-0.220200,0.321100,-0.794200,-0.363500,0.000025,-0.931600
0.187000,0.037670,0.750000,-0.015800,0.012650,0.999800
0.517200,0.353200,-0.109500,1.000000,0.000000,0.000000
0.239600,0.501500,-0.065730,0.000000,1.000000,0.000000
0.432500,-0.156600,0.135900,0.000000,-1.000000,0.000000
-0.511400,0.397100,-0.319900,-1.000000,0.000000,0.000000
-0.356400,0.416000,0.582900,0.000000,1.000000,0.000000
-0.400300,0.116600,0.751000,0.000000,0.000000,1.000000
-0.511400,0.414600,0.223500,-1.000000,0.000000,0.000000
0.455200,0.028880,-0.572500,0.895500,0.000000,-0.445100
-0.154800,0.415000,0.504000,0.000000,0.999800,-0.018990
0.131400,0.450400,-0.830500,0.264400,0.000016,-0.964400
0.062120,-0.522600,-0.636700,0.124000,0.000001,-0.992300
-0.302600,-0.583900,0.065750,-0.221200,-0.975200,0.000000
0.315300,-0.216500,0.065760,1.000000,0.000000,0.000000
0.313700,-0.172900,-0.363000,0.957700,-0.244600,-0.151800
-0.292900,0.498300,-0.746300,-0.410200,0.730200,-0.546400
-0.225000,-0.584000,-0.468900,0.000000,-1.000000,0.000000
-0.031600,-0.462000,-0.639700,-0.123000,0.000000,-0.992400
0.503900,0.213000,-0.438900,0.976200,0.000037,-0.217000
0.255600,-0.330500,-0.512000,0.743800,0.000000,-0.668400
0.283400,-0.156600,-0.574100,0.000000,-1.000000,0.000000
0.315300,-0.540900,0.504000,1.000000,0.000000,0.000000
0.275000,-0.093830,-0.766300,0.578600,0.000000,-0.815600
0.292700,-0.523300,-0.445900,0.899000,0.000000,-0.437900
-0.260700,-0.450300,-0.498500,-0.878900,0.000009,-0.477100
-0.509300,0.498600,0.162200,-0.771500,0.636200,0.000000
-0.188400,0.204200,-0.806500,-0.361300,0.000004,-0.932400
-0.279700,-0.090910,-0.758900,-0.577800,0.000014,-0.816100
0.502600,0.501500,-0.346200,0.005193,1.000000,-0.000020
-0.496700,0.501500,-0.135900,-0.016240,0.999900,0.000000
-0.306600,-0.581200,-0.360400,-0.802700,-0.591000,-0.080150
0.143300,0.152300,-0.826300,0.361400,0.000000,-0.932400
0.274700,0.416000,0.723200,0.000000,1.000000,0.000000
-0.495400,0.265600,-0.451300,-0.977800,0.000000,-0.209600
0.063500,0.449600,-0.839900,0.123100,0.000000,-0.992400
0.224000,-0.242900,-0.550400,0.759800,0.000000,-0.650100
-0.509100,-0.156100,-0.097860,-0.495700,-0.868500,0.000000
0.315300,-0.304200,0.100800,1.000000,0.000000,0.000000
-0.452900,0.415000,0.328700,0.000000,1.000000,0.000000
-0.268800,-0.435700,0.751000,0.000000,0.000000,1.000000
-0.511400,0.326900,-0.065720,-1.000000,0.000000,0.000000
0.379800,0.501500,0.013160,0.000000,1.000000,0.000000
0.038010,0.099020,0.751000,0.000000,0.000000,1.000000
0.458700,-0.156600,-0.232300,0.000000,-1.000000,0.000000
0.406200,-0.156600,-0.460200,0.000000,-1.000000,0.000000
0.108100,-0.216500,0.751000,0.000000,0.000000,1.000000
-0.347700,-0.156600,-0.162100,0.000000,-1.000000,0.000000
0.315300,-0.304200,-0.013130,1.000000,0.000000,0.000000
0.099350,-0.584000,0.074520,0.000000,-1.000000,0.000000
-0.216200,0.415900,0.407600,-0.019010,0.999100,0.038020
0.371100,0.415000,0.644300,0.000000,1.000000,0.000000
0.187000,0.501200,-0.425100,0.000032,0.999300,0.038030
0.204500,0.344500,0.750000,0.000000,0.000000,1.000000
0.314300,-0.356800,0.302400,0.999800,0.018950,0.000000
-0.511400,0.151600,0.162200,-1.000000,0.000000,0.000000
-0.309500,-0.453200,0.311200,-1.000000,0.000000,0.000000
-0.119800,-0.156600,-0.723100,0.000000,-1.000000,0.000000
-0.511400,0.037660,-0.021890,-1.000000,0.000000,0.000000
0.046770,-0.418200,0.750000,0.000000,0.000000,1.000000
0.315300,-0.488300,0.004396,1.000000,0.000000,0.000000
-0.023370,-0.584000,0.100800,0.000000,-1.000000,0.000000
0.046750,-0.584000,0.705600,0.000000,-1.000000,0.000000
0.516900,0.134000,-0.083250,0.999300,-0.038020,0.000000
-0.312600,0.028900,0.751000,0.000000,0.000000,1.000000
-0.032120,-0.514600,0.750000,0.000000,0.000000,1.000000
0.314300,-0.418200,-0.223500,1.000000,0.000000,0.000000
-0.309500,-0.234100,-0.258600,-1.000000,0.000000,0.000000
0.309700,0.501500,0.109600,0.000000,1.000000,0.000000
0.336100,-0.156600,0.206000,0.139400,-0.990200,0.000000
-0.435300,-0.156600,-0.495200,0.000000,-1.000000,0.000000
-0.452900,0.415000,0.425100,0.000000,1.000000,0.000000
-0.417800,0.415000,0.477700,0.000000,1.000000,0.000000
0.134400,-0.549600,0.750000,0.000000,0.000000,1.000000
-0.393700,0.093170,-0.655800,-0.759700,0.000031,-0.650200
-0.155200,-0.298400,-0.599700,-0.577500,0.000000,-0.816400
0.467500,0.416000,0.311200,0.000000,1.000000,-0.000630
-0.095130,-0.517500,-0.626100,-0.361600,0.000000,-0.932300
-0.421100,-0.155900,-0.621500,-0.407900,-0.842700,-0.351300
0.091980,-0.580500,-0.628900,0.277500,-0.478300,-0.833200
-0.511300,0.493000,0.030700,-0.989400,0.145200,0.000000
0.516600,0.493100,0.214800,0.994000,0.109700,0.000000
0.295600,0.449600,-0.751800,0.578200,0.000000,-0.815900
0.399500,0.291800,-0.655800,0.759800,0.000000,-0.650200
-0.057720,0.370700,-0.839900,-0.123100,0.000000,-0.992400
0.315300,-0.558400,0.679300,1.000000,0.000000,0.000000
-0.511400,0.458400,-0.328700,-1.000000,0.000000,0.000000
-0.300400,-0.435700,-0.398100,-0.977700,0.000000,-0.209900
0.152000,0.081490,0.750000,0.000000,0.000000,1.000000
0.108100,-0.339300,0.751000,0.000000,0.000000,1.000000
-0.356500,-0.156600,0.609200,0.000000,-1.000000,0.000000
-0.286300,0.501500,-0.074500,0.000000,1.000000,0.000000
0.517200,0.221700,-0.030660,1.000000,0.000000,0.000000
0.038000,0.416000,0.626800,0.000000,1.000000,0.000000
-0.128600,-0.584000,0.328700,0.000000,-1.000000,0.000000
0.315300,-0.488300,0.188500,1.000000,0.000000,0.000000
-0.511400,0.265600,0.504000,-1.000000,0.000000,0.000000
0.160700,-0.584000,-0.232300,0.000000,-1.000000,0.000000
0.517200,0.221700,0.074530,1.000000,0.000000,0.000000
0.002941,0.500900,-0.153400,0.038030,0.999300,0.000000
-0.426600,-0.156600,-0.013130,0.000000,-1.000000,0.000000
0.037990,-0.584000,0.469000,0.000000,-1.000000,0.000000
-0.049660,-0.156600,-0.810800,0.000000,-1.000000,0.000000
-0.093490,0.501500,-0.276100,0.000000,1.000000,0.000000
0.116900,0.501500,-0.670600,-0.003175,0.999900,0.015910
-0.093480,0.416000,0.346300,0.000000,1.000000,0.000000
0.064300,0.283100,0.750000,0.000000,0.000000,1.000000
-0.400300,-0.156600,0.057000,0.000000,-1.000000,0.000000
-0.321400,0.501500,0.135900,0.003172,0.999900,0.012690
0.315300,-0.505800,-0.197200,0.999600,0.025330,-0.012670
-0.242500,-0.584000,0.021920,0.000000,-1.000000,0.000000
-0.400300,0.501400,0.197200,0.012690,0.999700,0.022200
-0.111000,0.416000,0.565400,0.000000,1.000000,0.000000
-0.093490,0.501500,-0.705600,0.000000,1.000000,0.000000
-0.374000,0.416000,0.328700,-0.003170,0.999900,0.015910
0.517200,0.405800,0.442700,0.998200,0.060680,0.000000
0.517200,-0.085060,0.425200,1.000000,0.000000,0.000000
0.406100,0.501500,0.249800,0.000000,1.000000,0.000000
0.517200,0.300600,0.442700,1.000000,0.000000,0.000000
-0.102300,-0.584000,-0.127100,0.000000,-1.000000,0.000000
-0.309500,-0.225300,0.206000,-1.000000,0.000000,0.000000
0.204500,0.501500,0.188500,0.000000,1.000000,0.000000
0.388600,0.501500,-0.118300,0.000000,1.000000,0.000000
-0.391500,-0.156600,0.232300,0.000000,-1.000000,0.000000
-0.511400,-0.058760,-0.083250,-1.000000,0.000000,0.000000
0.257100,-0.584000,0.609200,0.000000,-1.000000,0.000000
-0.309500,-0.356800,0.512800,-1.000000,0.000000,0.000000
-0.023370,-0.584000,-0.390100,0.000000,-1.000000,0.000000
0.143200,0.501500,0.092050,0.000000,1.000000,0.000000
-0.189900,0.500500,0.092050,0.012670,0.999800,0.012670
0.397400,-0.137600,0.750000,-0.019060,0.005279,0.999800
-0.251300,0.169100,0.751000,0.000000,0.000000,1.000000
0.315300,-0.470800,0.425100,1.000000,0.000000,0.000000
0.458700,-0.156600,0.293700,0.000000,-1.000000,0.000000
-0.309500,-0.523300,0.398800,-1.000000,0.000000,0.000000
-0.269400,-0.248700,-0.481000,-0.895300,0.000034,-0.445400
-0.347700,-0.137600,0.751000,0.000000,-0.000515,1.000000
0.326200,-0.159200,0.609200,0.429900,-0.902900,0.000000
-0.314900,-0.531400,0.747000,-0.994900,0.000000,0.100500
-0.102000,0.458400,-0.834500,-0.123000,0.000000,-0.992400
0.206300,0.063950,-0.801800,0.361800,0.000000,-0.932300
-0.243800,0.025980,-0.784100,-0.511200,-0.000013,-0.859500
0.516700,0.475900,0.092070,0.998900,-0.044380,0.012670
-0.509100,-0.156100,-0.334500,-0.495700,-0.868500,0.000017
0.046760,0.449600,0.280900,0.000000,0.019030,0.999800
-0.509000,0.037660,-0.388900,-0.982000,0.000000,-0.188700
0.513200,0.406500,-0.396300,0.976800,0.000008,-0.213900
0.313200,-0.581300,0.004397,0.780300,-0.625500,0.000000
0.489200,-0.041230,-0.501900,0.952300,0.003543,-0.305000
0.514300,0.414800,0.596800,0.432000,0.901900,0.000000
-0.487200,-0.061680,-0.488700,-0.977100,0.000000,-0.212900
-0.002230,0.391100,-0.846700,-0.073920,-0.001132,-0.997300
-0.496700,0.037660,0.751000,-0.013180,0.000000,0.999900
0.428000,0.414600,-0.622600,0.765800,0.000009,-0.643100
0.274700,-0.584000,0.109600,0.000000,-1.000000,0.000000
-0.315500,0.312300,-0.733500,-0.578000,-0.000003,-0.816100
0.517200,0.072720,0.731900,1.000000,0.000000,0.000114
0.263200,-0.216500,-0.503500,0.806000,-0.003058,-0.592000
-0.487900,-0.156600,-0.153400,0.000000,-1.000000,0.000000
-0.470400,0.416000,0.661800,0.000000,1.000000,0.000000
0.467500,-0.156600,-0.355000,0.000000,-1.000000,0.000000
0.200200,-0.111400,-0.804200,0.361500,0.000000,-0.932400
0.315300,-0.540900,0.390100,1.000000,0.000000,0.000000
-0.313800,-0.222100,0.698800,-0.999600,-0.000002,-0.029420
0.516700,0.291800,0.504100,0.998800,-0.044270,0.022140
-0.463900,0.452600,-0.543200,-0.895500,0.000000,-0.445000
0.516700,0.318100,0.556700,0.998800,-0.044270,0.022140
-0.511400,0.090260,0.696900,-1.000000,0.000000,0.000000
0.314300,-0.260400,0.355000,1.000000,-0.006254,0.003127
-0.225000,-0.067520,0.751000,0.000000,0.000000,1.000000
0.213300,0.415200,0.591700,0.019010,0.999100,-0.038020
0.143200,-0.584000,0.276100,0.000000,-1.000000,0.000000
-0.198700,0.501500,-0.407600,0.000000,1.000000,0.000000
0.309700,0.501500,0.232300,0.000000,1.000000,0.000000
0.283400,-0.277900,0.751000,0.000000,0.000000,1.000000
0.213300,-0.584000,-0.425100,0.000000,-1.000000,0.000000
0.379900,-0.156600,0.109600,0.000000,-1.000000,0.000000
-0.511400,0.213000,0.670600,-1.000000,0.000000,0.000000
0.423700,0.501500,0.127100,0.000000,1.000000,0.000000
0.301000,-0.128900,0.751000,0.000000,0.000000,1.000000
0.134400,-0.584000,0.495300,0.000000,-1.000000,0.000000
-0.309500,-0.505800,-0.179700,-1.000000,0.000000,0.000000
0.239600,0.500500,-0.302400,0.000000,1.000000,0.000000
0.517200,0.177900,-0.249800,1.000000,0.000000,0.000000
-0.277600,-0.156600,-0.556600,0.000000,-1.000000,0.000000
0.336000,0.501500,-0.530300,-0.009534,0.999500,0.028560
0.257100,-0.584000,-0.170900,0.000000,-1.000000,0.000000
-0.309500,-0.225300,0.512800,-1.000000,0.000000,0.000000
-0.260000,0.416000,0.653100,0.000000,1.000000,0.000000
0.517200,0.344500,-0.048190,1.000000,0.000000,0.000000
-0.511400,-0.076290,-0.179700,-1.000000,0.000000,0.000000
-0.032140,0.500500,0.153400,0.000000,1.000000,0.000000
0.516200,0.002596,-0.293600,1.000000,0.000000,0.000000
-0.511400,0.309400,-0.004359,-1.000000,0.000000,0.000000
0.516200,0.011360,-0.188400,1.000000,0.000000,0.000000
-0.309500,-0.453200,0.004396,-1.000000,0.000000,0.000000
0.467500,-0.156600,-0.056960,0.000000,-1.000000,0.000000
-0.032140,-0.584000,0.731900,0.000000,-1.000000,0.000057
0.090580,-0.584000,0.337500,0.000000,-1.000000,0.000000
0.011710,0.416000,0.495300,0.000000,1.000000,0.000000
0.081810,0.500500,-0.197200,0.000000,1.000000,0.000000
0.517200,-0.067520,0.609200,1.000000,0.000000,0.000000
-0.040900,-0.584000,0.670600,0.000000,-1.000000,0.000000
0.265900,0.415400,0.617900,0.015820,0.999000,-0.041160
-0.225000,-0.584000,0.565400,0.000000,-1.000000,0.000000
0.292200,-0.584000,0.276100,0.000057,-1.000000,0.000000
0.450000,-0.156600,-0.179700,0.000000,-1.000000,0.000000
-0.309500,-0.479500,0.144600,-1.000000,0.000000,0.000000
0.315300,-0.462000,0.249800,1.000000,0.000000,0.000000
0.239600,-0.067520,0.751000,0.000000,0.000000,1.000000
0.055520,-0.584000,-0.197200,0.000000,-1.000000,0.000000
-0.511400,0.002600,-0.346200,-1.000000,0.000000,0.000000
-0.040460,0.090250,-0.842100,-0.122900,0.000000,-0.992400
-0.040900,-0.584000,-0.144600,0.000000,-1.000000,0.000000
0.497200,0.046420,-0.467800,0.966300,0.012670,-0.257100
-0.511400,-0.111400,0.127100,-1.000000,0.000000,0.000000
0.362300,0.501500,0.092050,0.000000,1.000000,0.000000
0.517000,0.440900,-0.188500,0.999800,0.015860,-0.012670
0.054870,0.221700,-0.841000,0.123000,0.000000,-0.992400
-0.511400,0.142900,-0.039420,-1.000000,0.000000,0.000000
-0.330200,0.416000,0.688100,0.000000,1.000000,0.000000
0.344800,-0.156600,-0.635500,0.000000,-1.000000,0.000000
0.514700,0.498000,0.272000,0.748200,0.641600,0.168800
-0.504200,-0.156600,0.574200,-0.043180,-0.999100,0.000000
-0.330200,-0.156600,-0.407600,0.000631,-1.000000,0.000057
0.371100,-0.156600,-0.293600,0.000000,-1.000000,0.000000
0.315000,-0.575600,0.433900,0.988800,-0.149200,0.000000
0.037990,0.501500,-0.828300,0.000287,0.999900,-0.015520
0.481400,0.440900,-0.519800,0.895500,0.009507,-0.445000
0.362500,0.090230,-0.697800,0.755100,0.003035,-0.655500
0.227700,-0.435700,-0.545600,0.724600,0.000000,-0.689200
0.265900,-0.584000,-0.319900,0.000000,-1.000000,0.000000
-0.216200,0.416000,0.723200,0.000000,1.000000,0.000000
0.315300,-0.216500,-0.197200,1.000000,0.000000,0.000000
-0.309500,-0.558400,-0.039430,-1.000000,0.000000,0.000000
-0.084720,-0.532100,0.750000,0.000000,0.000000,1.000000
-0.005737,-0.356800,-0.642900,-0.082430,0.000000,-0.996600
0.517200,0.142900,0.179700,1.000000,0.000000,0.000000
0.020480,0.318200,0.750000,0.015840,-0.003169,0.999900
0.213300,0.090250,0.750000,0.000000,0.000000,1.000000
0.108100,-0.014930,0.750000,0.000000,0.000000,1.000000
0.301000,0.291900,0.750500,-0.022160,0.044310,0.998800
0.516200,0.142900,0.284900,0.999800,0.019010,0.000000
-0.005834,0.501400,-0.381300,0.015870,0.999700,0.015860
-0.511400,0.160400,0.626800,-1.000000,0.000000,0.000000
0.090600,0.416000,0.556600,0.003204,1.000000,-0.006408
-0.309500,-0.400600,0.311200,-1.000000,0.000000,0.000000
0.187000,-0.584000,-0.004374,0.000000,-1.000000,0.000000
-0.198700,-0.584000,-0.372500,0.000000,-1.000000,0.000000
0.151900,-0.584000,-0.056970,0.000000,-1.000000,0.000000
0.029220,0.501500,0.048220,-0.000057,1.000000,0.000000
0.315300,-0.356800,-0.092030,0.999800,-0.019000,0.000000
-0.452900,-0.156600,-0.425100,0.000000,-1.000000,0.000000
-0.137300,0.177900,0.751000,0.000000,0.000000,1.000000
0.517200,0.186700,0.021940,1.000000,0.000000,0.000000
0.517200,0.037660,0.328700,1.000000,0.000000,0.000000
-0.309200,-0.575600,0.302400,-0.988900,-0.148700,0.000000
0.224000,-0.540900,-0.550400,0.759800,0.000008,-0.650100
-0.426600,0.501500,-0.065730,0.000000,1.000000,0.000000
-0.172400,-0.216500,0.750000,0.000000,0.000000,1.000000
-0.023350,0.204200,0.751000,0.000000,0.000000,1.000000
-0.330200,-0.156600,0.311200,-0.139300,-0.990300,-0.000020
0.195800,-0.120100,0.751000,0.000000,0.000000,1.000000
0.094880,-0.313000,-0.628500,0.362500,0.000000,-0.932000
-0.084850,-0.014940,-0.836500,-0.118300,0.000000,-0.993000
-0.511400,0.072720,-0.118300,-1.000000,0.000000,0.000000
0.406100,0.063940,0.750900,0.006383,-0.022250,0.999700
-0.119800,-0.584000,0.144600,0.000000,-1.000000,0.000000
-0.233700,-0.584000,0.355000,0.000000,-1.000000,0.000000
-0.509000,0.370800,-0.388900,-0.982000,0.000000,-0.188800
0.038000,0.415800,0.746900,0.000000,0.995900,0.090840
0.312500,-0.430600,0.749800,0.448100,0.000000,0.894000
0.499500,0.291900,-0.459500,0.977700,0.000000,-0.209900
-0.102000,0.318200,-0.834500,-0.123000,0.000000,-0.992400
-0.309500,-0.321700,-0.346200,-0.999600,0.000000,-0.026830
-0.373500,0.464200,-0.679400,-0.759700,0.000012,-0.650200
-0.330700,0.464300,-0.722700,-0.578500,0.000013,-0.815700
0.476300,0.501500,-0.083260,0.000000,1.000000,0.000000
0.090600,0.397000,0.750000,0.000000,-0.017770,0.999800
0.514900,-0.102600,-0.388900,0.985700,0.000000,-0.168400
0.315300,-0.567200,-0.092030,0.999900,-0.014670,0.000000
0.090610,0.116500,0.750900,0.022180,-0.034840,0.999100
0.517200,0.160400,-0.127100,1.000000,0.000000,0.000000
0.318500,0.501000,-0.267400,-0.012670,0.999400,-0.031660
-0.251300,-0.584000,0.460200,0.000000,-1.000000,0.000000
0.315300,-0.488300,0.293700,1.000000,0.000000,0.000000
0.371100,-0.156600,0.653100,0.000000,-1.000000,0.000000
-0.511400,0.283100,-0.363800,-1.000000,0.000000,-0.009796
0.467500,0.416000,0.425200,0.000000,1.000000,0.000000
0.517200,0.370800,-0.188400,1.000000,0.000000,0.000000
0.314300,-0.497100,-0.311200,1.000000,0.000000,0.000000
-0.356400,0.318200,0.751000,0.000000,0.000000,1.000000
0.432500,-0.032460,0.751000,-0.000057,0.000000,1.000000
0.169500,-0.067520,0.751000,0.000000,0.000000,1.000000
0.517200,0.116600,0.591700,0.999800,0.019030,0.000000
0.144900,-0.418200,-0.609100,0.400400,0.000000,-0.916400
-0.111000,0.501400,0.013160,0.019030,0.999600,0.019040
0.116900,-0.497000,0.750000,0.000000,0.000000,1.000000
0.516200,-0.050000,-0.267300,1.000000,0.000000,0.000000
-0.102300,0.501500,-0.109600,0.000000,1.000000,0.000000
-0.049670,-0.584000,-0.197200,0.000000,-1.000000,0.000000
0.517200,0.116600,0.433900,0.999800,0.019030,0.000000
0.315300,-0.426900,0.644300,1.000000,0.000000,0.000000
-0.137300,-0.584000,-0.249800,0.000000,-1.000000,0.000000
-0.119800,0.501500,-0.319900,0.000000,1.000000,0.000000
0.379900,0.416000,0.731900,0.000000,1.000000,0.000516
0.160700,0.500900,-0.381300,0.000000,1.000000,0.000000
0.309700,0.467200,0.280900,-0.000003,0.019030,0.999800
-0.309500,-0.453200,0.390100,-1.000000,0.000000,0.000000
0.315300,-0.234100,0.600500,1.000000,0.000000,0.000000
0.160700,0.416000,0.618000,0.000000,1.000000,0.000000
-0.198700,0.501500,0.039450,0.000000,1.000000,0.000000
0.344800,-0.156600,-0.249800,-0.000745,-1.000000,0.000000
0.037980,0.500500,-0.100800,-0.009536,0.999800,-0.018960
-0.119800,-0.584000,0.644300,0.000000,-1.000000,0.000000
0.204500,0.283100,0.750000,0.000000,0.000000,1.000000
-0.511400,0.204200,-0.144600,-1.000000,0.000000,0.000000
-0.309500,-0.277900,0.416400,-1.000000,0.000000,0.000000
-0.309500,-0.313000,0.276100,-1.000000,0.000000,0.000000
0.517200,-0.067520,-0.170900,1.000000,0.000000,0.000000
-0.309500,-0.207800,0.346300,-1.000000,0.000000,0.000000
-0.040900,-0.584000,0.574200,0.000000,-1.000000,0.000000
-0.137300,0.501500,-0.609200,0.000000,1.000000,0.000000
-0.511400,0.300600,0.214800,-1.000000,0.000000,0.000000
0.239600,0.416000,0.442700,0.000000,1.000000,0.000000
-0.309500,-0.462000,-0.083260,-1.000000,0.000000,0.000000
-0.452900,-0.156600,0.477700,0.000000,-1.000000,0.000000
0.441200,0.160400,0.751000,0.000000,0.000000,1.000000
0.476300,-0.156600,0.661800,0.000000,-1.000000,0.000000
-0.163600,-0.584000,-0.004374,0.000000,-1.000000,0.000000
-0.014310,-0.567200,-0.641900,-0.122800,-0.004567,-0.992400
-0.093490,-0.584000,0.276100,0.000000,-1.000000,0.000000
-0.032140,0.501500,-0.609200,0.000000,1.000000,0.000000
0.516200,0.116500,-0.293600,0.999800,-0.018990,0.000000
0.178300,0.416000,0.688100,0.000000,1.000000,0.000000
0.230800,0.416000,0.328700,0.000000,1.000000,0.000000
-0.511400,0.186700,0.477700,-1.000000,0.000000,0.000000
0.427200,0.265600,-0.621900,0.746800,0.000000,-0.665100
0.227900,-0.304200,-0.545800,0.760400,0.000000,-0.649500
0.336500,-0.111400,-0.722800,0.578800,0.000000,-0.815500
0.321300,0.055180,-0.733600,0.577500,0.000000,-0.816400
0.187000,0.501500,-0.758200,0.000000,1.000000,0.000000
0.346800,-0.032480,-0.715500,0.631800,0.000000,-0.775100
0.124400,0.055190,-0.832100,0.186700,0.000000,-0.982400
-0.302100,-0.225300,-0.389800,-0.977800,-0.000013,-0.209500
-0.206600,0.498600,-0.796900,-0.195100,0.665700,-0.720200
-0.373500,0.350300,-0.679400,-0.759800,0.000000,-0.650200
-0.182300,-0.052920,-0.808900,-0.361500,0.000000,-0.932400
-0.026280,0.415200,0.750300,0.000000,0.709700,0.704500
-0.188400,0.151600,-0.806500,-0.361300,0.000008,-0.932400
-0.170000,0.405800,-0.813600,-0.361800,0.000000,-0.932300
-0.493600,0.177900,-0.459500,-0.977700,0.000000,-0.210100
-0.435300,-0.120200,0.750900,0.018950,-0.037940,0.999100
-0.170000,0.335700,-0.813600,-0.361800,0.000000,-0.932300
-0.305200,0.104100,-0.740800,-0.578300,0.000000,-0.815800
-0.075160,-0.304200,-0.633300,-0.272200,0.000000,-0.962200
-0.458100,-0.093830,-0.554900,-0.895700,-0.000017,-0.444700
-0.302600,-0.583900,0.170900,-0.221200,-0.975200,0.000000
-0.248700,-0.023700,-0.780900,-0.568600,0.000029,-0.822600
-0.198700,-0.549600,0.750000,0.000000,0.000000,1.000000
-0.320900,-0.163300,0.711600,-0.707800,-0.706300,-0.012960
-0.201400,-0.283800,-0.566900,-0.592900,0.000000,-0.805300
0.054870,-0.041240,-0.841000,0.123000,0.000000,-0.992400
-0.511200,-0.076290,0.746800,-0.977300,0.000000,0.212000
-0.309500,-0.453200,0.521600,-1.000000,0.000000,0.000000
-0.479200,-0.156600,0.320000,0.000000,-1.000000,0.000000
-0.225000,0.213000,0.751000,0.000000,0.000000,1.000000
-0.511400,-0.049990,0.574200,-1.000000,0.000000,0.000000
-0.309500,-0.242800,-0.021900,-1.000000,0.000000,0.000000
-0.014600,-0.584000,0.381300,0.000000,-1.000000,0.000000
-0.084710,0.440800,0.280400,0.012670,-0.047650,0.998800
0.020460,-0.584000,0.074520,0.000000,-1.000000,0.000000
0.516200,0.107800,0.039460,1.000000,0.000000,0.000000
0.073070,-0.374400,0.750400,0.000000,-0.038010,0.999300
0.011690,-0.584000,-0.039440,0.000000,-1.000000,0.000000
-0.102200,0.221700,0.751000,0.000000,0.000000,1.000000
-0.511400,0.072720,0.092060,-1.000000,0.000000,0.000000
-0.377600,0.242200,-0.674600,-0.759700,0.000013,-0.650200
-0.128600,0.501500,-0.442700,0.000000,1.000000,0.000000
0.169500,0.500900,-0.512800,0.000000,0.999300,-0.037990
0.314600,-0.374400,-0.153400,0.999300,-0.038000,0.000000
-0.309500,-0.532100,-0.267300,-1.000000,0.000000,0.000000
-0.309500,-0.269100,-0.100800,-1.000000,0.000000,0.000000
0.406100,0.501500,-0.284900,0.000000,1.000000,-0.000057
0.517200,0.239300,0.144700,1.000000,0.000000,0.000000
0.178200,-0.584000,0.328700,0.000000,-1.000000,0.000000
-0.400300,0.344500,0.751000,0.000000,0.000000,1.000000
0.516200,0.344500,0.688100,1.000000,0.000000,0.000000
-0.084720,-0.409400,0.750000,-0.003094,0.006233,1.000000
0.283400,0.416000,0.320000,0.000000,1.000000,0.000000
-0.511400,0.002600,0.530300,-1.000000,0.000000,0.000000
0.517200,0.002600,0.241100,1.000000,0.000000,0.000000
0.046770,0.416000,0.433900,0.000000,1.000000,0.000000
0.315300,-0.225300,-0.021900,1.000000,0.000000,0.000000
0.516200,0.099020,-0.048190,1.000000,0.000000,0.000000
0.517200,0.370800,0.626800,1.000000,-0.000038,0.000019
-0.365200,-0.156600,-0.512800,0.000000,-1.000000,0.000000
-0.128600,-0.584000,0.705600,0.000000,-1.000000,0.000000
-0.409100,0.501500,-0.267300,0.000000,1.000000,0.000000
0.014390,0.011360,-0.846000,0.122100,0.000000,-0.992500
-0.511400,0.467200,0.223500,-1.000000,0.000000,0.000000
0.090580,0.501500,-0.784500,0.000000,0.999800,-0.019030
0.399500,0.484700,-0.655800,0.759800,0.005073,-0.650100
0.253200,-0.579700,-0.515800,0.726000,-0.259300,-0.637000
-0.356500,0.432300,0.280800,0.000000,0.246400,0.969200
-0.072610,0.417500,-0.838000,-0.128300,0.000000,-0.991700
-0.268800,-0.181500,0.750000,0.000000,0.000000,1.000000
0.200200,0.414600,-0.804200,0.361500,0.000000,-0.932400
-0.504200,-0.156600,0.705600,-0.043180,-0.999100,0.000000
-0.268800,-0.584000,-0.319900,0.000000,-1.000000,0.000000
0.037610,0.362000,-0.843200,0.122900,0.000000,-0.992400
0.315300,-0.540900,0.311200,1.000000,0.000000,0.000000
-0.189000,-0.156600,-0.799700,-0.022250,-0.998500,-0.050390
0.512400,0.309400,-0.395100,0.976200,0.000054,-0.216900
0.188100,-0.041240,-0.808900,0.361500,0.000000,-0.932400
0.516300,0.412100,0.301700,0.960500,0.278300,0.005126
0.134400,0.416000,0.723200,0.000000,1.000000,0.000000
-0.155200,-0.464900,-0.599700,-0.577500,-0.000009,-0.816400
0.397400,0.416000,0.337500,0.000000,1.000000,0.000000
-0.446500,0.084400,-0.578300,-0.895400,0.000000,-0.445300
0.485000,0.501500,0.065750,0.000000,1.000000,0.000000
-0.484400,-0.156200,-0.484600,-0.152000,-0.986400,-0.062280
0.309700,0.501500,-0.688100,0.000000,1.000000,0.000000
0.486300,0.195400,-0.507700,0.904600,0.000000,-0.426300
0.481400,0.011360,-0.519800,0.895500,0.000000,-0.445000
-0.470400,0.475900,0.280900,0.000000,0.000000,1.000000
0.206300,0.142800,-0.801800,0.361800,0.000000,-0.932300
-0.377600,0.023040,-0.674600,-0.759700,-0.000013,-0.650200
-0.150100,-0.187300,-0.603200,-0.533900,0.000071,-0.845500
-0.310100,-0.329800,0.750000,-0.023760,0.000000,0.999700
0.213300,0.449600,0.280900,0.000000,0.000000,1.000000
-0.121000,-0.561300,-0.616100,-0.361500,0.000012,-0.932400
0.221300,-0.156600,-0.791300,0.026600,-0.997500,-0.065480
0.064300,-0.580900,0.749800,0.000000,-0.369300,0.929300
0.509300,0.291100,0.751000,0.052550,0.000000,0.998600
-0.309000,-0.532100,-0.354700,-0.995800,0.000000,-0.091200
0.430900,0.204200,-0.618000,0.772900,0.000000,-0.634500
-0.049080,-0.120100,-0.841000,-0.122900,0.000000,-0.992400
-0.435400,0.501500,-0.319900,0.000000,1.000000,0.000000
0.476300,0.501500,0.170900,0.000000,1.000000,0.000000
0.466800,-0.120100,-0.549100,0.895500,0.000000,-0.445000
0.516400,0.107800,0.100800,0.999100,0.038080,-0.018980
0.517200,0.090260,0.267400,1.000000,0.000000,0.000000
0.379800,0.501500,-0.048200,0.000000,1.000000,0.000000
-0.511400,0.063960,0.381300,-1.000000,0.000000,0.000000
-0.102300,0.501500,-0.547800,0.000000,1.000000,0.000000
0.467500,0.415000,0.679400,0.000000,1.000000,0.000000
0.248400,0.416000,0.661800,0.000000,1.000000,0.000000
-0.172400,0.335700,0.751000,0.000000,0.000000,1.000000
-0.511400,0.458400,0.127100,-1.000000,0.000000,0.000000
0.274700,0.501500,-0.477700,0.000000,1.000000,0.000000
-0.478500,-0.105500,-0.513900,-0.895900,0.000000,-0.444200
0.260300,-0.453200,-0.507900,0.800600,0.000000,-0.599300
-0.463900,0.259700,-0.543200,-0.895500,0.000000,-0.445000
0.516200,0.055190,-0.100800,1.000000,0.000000,0.000000
-0.005839,0.501500,-0.547800,0.000000,1.000000,0.000000
-0.511400,-0.076290,-0.311200,-1.000000,0.000000,0.000000
0.315300,-0.181500,-0.162100,1.000000,0.003227,0.000000
-0.437800,-0.055850,-0.595900,-0.895500,0.000000,-0.445000
-0.023370,0.500500,0.048220,0.000000,1.000000,0.000000
-0.058420,0.090260,0.751000,0.000000,0.000000,1.000000
0.517200,-0.058760,-0.021890,1.000000,0.000000,0.000000
0.517200,0.432100,0.206000,1.000000,0.000000,0.000000
0.371100,0.501500,-0.618000,0.003160,0.999900,-0.015850
0.315300,-0.532100,0.170900,1.000000,0.000000,0.000000
0.517200,0.379500,0.127100,1.000000,0.000000,0.000000
-0.511400,0.213000,-0.337500,-1.000000,0.000000,0.000000
0.283400,-0.172700,0.751000,0.000000,0.000000,1.000000
0.178200,-0.584000,0.442700,0.000000,-1.000000,0.000000
-0.426600,0.416000,0.547900,0.000000,1.000000,0.000000
-0.146100,-0.172700,0.750000,0.000000,0.000000,1.000000
0.353500,0.501500,-0.206000,0.000000,1.000000,0.000000
0.239600,-0.156600,-0.591700,0.000000,-1.000000,0.000000
-0.356500,-0.156600,-0.653000,-0.000019,-1.000000,-0.000019
0.108100,-0.435700,0.750000,0.000000,0.000000,1.000000
-0.216200,0.500500,0.162200,0.000000,1.000000,0.000000
0.301000,-0.156600,-0.530300,0.000000,-1.000000,0.000000
0.265900,-0.584000,0.162200,0.000000,-1.000000,0.000000
0.213300,-0.584000,0.197200,0.000000,-1.000000,0.000000
0.055520,-0.584000,0.644300,0.000000,-1.000000,0.000000
0.020460,-0.584000,-0.504000,0.000000,-1.000000,0.000000
-0.511400,-0.023700,0.433900,-1.000000,0.000000,0.000000
0.517200,0.011370,0.460200,1.000000,0.000000,0.000000
-0.023360,-0.156600,-0.740700,0.000000,-1.000000,0.000000
-0.511400,0.099020,-0.355000,-1.000000,0.000000,0.000000
0.064280,0.500500,-0.635500,0.000000,0.999800,-0.019040
-0.260700,-0.529200,-0.498500,-0.878900,-0.000027,-0.477100
0.081820,0.501500,-0.495300,0.000000,0.999800,-0.019070
0.090590,-0.156600,-0.661800,-0.000038,-1.000000,0.000076
0.353600,0.440900,0.280900,0.000000,-0.002993,1.000000
-0.511400,0.090260,-0.197200,-1.000000,0.000000,0.000000
0.038000,-0.076290,0.750000,0.000000,0.000000,1.000000
0.037990,-0.584000,0.153400,0.000000,-1.000000,0.000000
0.020460,0.501500,-0.714400,0.000000,1.000000,0.000000
-0.426600,-0.156600,-0.074490,0.000000,-1.000000,0.000000
0.064290,-0.584000,0.556600,0.000000,-1.000000,0.000000
0.517200,-0.076290,0.162200,1.000000,0.000000,0.000000
0.371100,-0.156600,-0.083250,0.000000,-1.000000,0.000000
-0.023360,-0.146400,0.750000,0.000000,0.000000,1.000000
0.517200,0.002600,0.574200,1.000000,0.000000,0.000000
-0.058430,0.501500,-0.767000,0.000000,1.000000,0.000000
0.222100,-0.584000,0.048220,0.000000,-1.000000,0.000000
-0.014600,-0.584000,0.241100,0.000000,-1.000000,0.000000
0.517200,-0.120100,0.346300,1.000000,0.000000,0.000000
0.314300,-0.409400,-0.311200,1.000000,0.000000,0.000000
-0.311700,-0.207800,0.626800,-0.999600,0.000000,-0.028960
-0.314000,-0.409400,0.705900,-0.999600,0.000000,-0.029330
-0.128500,-0.313000,0.750000,0.000000,0.000000,1.000000
0.309700,0.415700,0.512800,0.000000,0.999300,0.037990
-0.268800,-0.584000,0.416400,0.000000,-1.000000,0.000000
0.160700,-0.584000,-0.162200,0.000000,-1.000000,0.000000
-0.511400,0.107800,0.179700,-1.000000,0.000000,0.000000
-0.309500,-0.409400,0.214800,-1.000000,0.000000,0.000000
0.239600,-0.584000,0.504000,0.000000,-1.000000,0.000000
0.432500,0.274300,0.751000,0.000000,0.000000,1.000000
-0.461600,-0.156600,-0.249800,0.000000,-1.000000,0.000000
-0.309500,-0.426900,0.433900,-1.000000,0.000000,0.000000
0.414900,-0.156600,0.179700,0.000000,-1.000000,0.000000
-0.242500,-0.584000,-0.197200,0.000000,-1.000000,0.000000
-0.154900,0.501500,-0.206000,0.000000,1.000000,0.000000
0.362300,0.177900,0.751000,0.000000,0.000000,1.000000
-0.309500,-0.435700,-0.214700,-1.000000,0.000000,0.000000
-0.382700,-0.156600,-0.398800,0.000000,-1.000000,0.000000
-0.119800,-0.584000,-0.547800,0.000000,-1.000000,0.000000
-0.435300,0.256800,0.751000,0.000000,0.000000,1.000000
0.517200,0.344500,0.232300,1.000000,0.000000,0.000000
0.315300,-0.523300,0.714400,1.000000,0.000000,0.000000
-0.312600,0.501500,-0.574100,0.000000,1.000000,0.000000
0.314300,-0.348000,0.495300,1.000000,-0.000057,0.000000
0.517200,-0.120100,0.512800,1.000000,0.000000,0.000000
-0.309400,-0.172900,-0.065730,-0.973000,-0.230900,0.000009
-0.155200,-0.351000,-0.599700,-0.577500,0.000000,-0.816400
-0.483700,0.239300,-0.502000,-0.947300,0.000000,-0.320300
0.315300,-0.435700,0.118300,1.000000,0.000000,0.000000
-0.040240,-0.260400,-0.638700,-0.123000,0.000000,-0.992400
-0.242500,-0.219500,-0.522000,-0.759800,0.000000,-0.650100
0.315300,-0.181500,0.170900,1.000000,0.003226,0.000000
0.362300,-0.156600,0.407600,0.000000,-1.000000,0.000000
-0.289600,-0.365600,-0.440100,-0.922100,0.000000,-0.386800
0.239600,-0.558400,0.750000,0.000000,0.000000,1.000000
-0.414000,-0.076300,-0.632100,-0.759700,-0.000017,-0.650300
0.331400,0.177900,-0.726400,0.579000,0.000000,-0.815300
-0.226300,0.227600,-0.791800,-0.361500,0.000000,-0.932400
0.516500,0.134100,0.705700,0.999300,0.038020,0.000000
-0.309500,-0.532100,0.284900,-1.000000,0.000000,0.000000
-0.311500,-0.532100,0.618000,-0.999600,0.000000,-0.028900
0.502600,0.501500,-0.162200,0.005214,1.000000,0.000000
0.351200,0.274300,-0.711800,0.680300,0.000000,-0.733000
0.383500,0.195400,-0.674600,0.759800,0.000000,-0.650100
-0.400300,0.416000,0.723200,0.000000,1.000000,0.000000
0.383500,0.028880,-0.674600,0.759800,0.000000,-0.650100
0.312500,-0.378200,0.749800,0.458900,-0.015910,0.888300
-0.118600,0.414600,-0.832100,-0.187000,0.000000,-0.982400
-0.511000,-0.152700,-0.258600,-0.973100,-0.230400,0.000000
0.516900,-0.152700,0.425200,0.972500,-0.232800,0.000000
0.316300,0.345200,-0.737100,0.578300,0.000000,-0.815800
0.355100,-0.152600,-0.707400,0.735700,-0.087480,-0.671700
-0.133100,-0.257400,-0.611400,-0.361300,-0.000011,-0.932400
0.485000,-0.156600,0.030700,0.000000,-1.000000,0.000000
-0.286300,-0.567200,0.751000,0.021910,-0.027060,0.999400
0.437600,0.125300,-0.607500,0.902500,-0.015900,-0.430400
0.472700,0.344400,-0.537400,0.895500,0.000000,-0.445000
-0.309500,-0.549600,0.030690,-1.000000,0.000000,0.000000
0.285500,0.160400,-0.758900,0.577500,0.000000,-0.816400
0.138900,-0.260400,-0.611400,0.361600,0.000000,-0.932300
0.363100,0.414600,-0.698300,0.760600,0.000012,-0.649200
0.502600,-0.156600,0.188500,0.001543,-1.000000,0.000000
-0.499500,0.414600,-0.432500,-0.976300,0.000000,-0.216300
0.244200,0.090250,-0.787000,0.421100,0.000000,-0.907000
0.134400,-0.156600,-0.784500,0.000000,-1.000000,0.000000
0.138900,-0.558400,-0.611400,0.361600,-0.000038,-0.932300
0.467500,0.449600,0.280900,0.000000,0.000000,1.000000
-0.164300,0.499800,0.273900,0.000000,0.957000,0.289900
-0.511400,-0.137600,0.530300,-1.000000,-0.000171,0.000000
-0.499300,-0.152500,-0.432500,-0.971400,-0.117300,-0.206200
-0.510500,0.412100,0.557400,-0.959300,0.282300,0.000000
-0.181000,-0.386000,-0.581400,-0.577900,0.000000,-0.816100
-0.511400,-0.137600,0.407600,-1.000000,-0.000171,0.000000
-0.234400,-0.342900,-0.531400,-0.759200,0.000000,-0.650800
-0.511400,-0.128900,-0.179700,-1.000000,0.000000,0.000000
0.315300,-0.199000,0.258600,1.000000,0.000000,0.000000
-0.479200,0.501500,-0.188500,0.000000,1.000000,0.000000
-0.309500,-0.348000,-0.188400,-1.000000,0.000000,0.000000
0.467500,0.501500,-0.241000,0.000000,1.000000,0.000000
-0.181200,0.501500,-0.118300,0.000000,1.000000,0.000000
-0.470400,-0.156600,0.144700,0.000000,-1.000000,0.000000
-0.409000,-0.156600,0.486500,0.000000,-1.000000,0.000000
-0.511400,0.300600,0.372600,-1.000000,0.000000,0.000000
-0.426600,-0.156600,-0.311200,0.000000,-1.000000,0.000000
0.315300,-0.400600,0.320000,1.000000,0.000000,0.000000
-0.461600,0.416000,0.705700,0.000000,1.000000,0.000000
0.502600,-0.156600,0.092060,0.001543,-1.000000,0.000000
0.029240,0.195400,0.750000,0.000000,0.000000,1.000000
-0.511400,0.028900,-0.284900,-1.000000,0.000000,0.000000
0.152000,0.186700,0.751000,0.000000,0.000000,1.000000
-0.320400,-0.159200,0.118400,-0.430300,-0.902700,0.000000
0.230800,0.416000,0.705700,0.000000,1.000000,0.000000
0.301000,0.500500,-0.363800,0.000000,0.999800,0.018930
0.516200,0.248000,0.521600,1.000000,0.000000,0.000000
-0.309500,-0.391900,0.170900,-1.000000,0.000000,0.000000
-0.198700,0.415000,0.495300,0.000000,1.000000,0.000000
-0.286300,0.265600,0.751000,0.000000,0.000000,1.000000
-0.084730,0.500500,0.206000,0.000000,1.000000,0.000000
0.315300,-0.514600,-0.092030,1.000000,0.000000,0.000000
0.099340,0.500500,-0.284900,0.000000,1.000000,0.000000
0.099350,-0.584000,0.661800,0.000000,-1.000000,0.000000
-0.511400,-0.049990,-0.127100,-1.000000,0.000000,0.000000
0.371100,-0.156600,0.065760,0.000000,-1.000000,0.000000
0.002932,0.458400,0.280400,0.016030,0.006357,0.999900
-0.198700,-0.584000,0.109600,0.000000,-1.000000,0.000000
0.020460,-0.584000,0.521600,0.000000,-1.000000,0.000000
-0.382700,0.011370,0.751000,0.000000,0.000000,1.000000
-0.023370,0.501500,-0.337500,0.000000,1.000000,0.000000
-0.023350,0.265600,0.751000,0.000000,0.000000,1.000000
-0.347700,0.501500,0.030690,0.000000,1.000000,0.000000
0.517200,-0.076290,0.284900,1.000000,0.000000,0.000000
-0.511400,0.300600,0.039470,-1.000000,0.000000,0.000000
0.318500,0.046430,0.751000,0.000000,0.000000,1.000000
-0.005839,-0.584000,-0.083260,0.000000,-1.000000,0.000000
0.476300,0.037660,0.751000,0.000000,0.000000,1.000000
0.516400,-0.102600,-0.311200,0.999100,0.037970,-0.018980
-0.311000,-0.409400,0.600500,-0.999600,0.000000,-0.028910
-0.233700,-0.400600,0.751000,0.000000,0.000000,1.000000
-0.023370,-0.584000,0.626700,0.000000,-1.000000,0.000000
-0.058420,-0.156600,-0.696800,0.000000,-1.000000,0.000000
0.239600,0.501400,-0.206000,-0.018990,0.999600,-0.018980
0.011660,0.501200,0.144600,-0.037970,0.999300,0.000000
-0.049650,0.416000,0.653100,0.000000,1.000000,0.000000
0.230800,0.221700,0.751000,0.000019,-0.000038,1.000000
0.204500,0.415000,0.547900,0.000000,1.000000,0.000000
0.314300,-0.242900,0.407600,1.000000,0.000076,-0.000038
0.517200,-0.111400,-0.074480,1.000000,0.000000,0.000000
0.125700,0.274300,0.750000,0.000000,0.000000,1.000000
0.517200,0.274300,-0.170900,1.000000,0.000000,0.000000
-0.511400,0.116600,0.083300,-1.000000,0.000000,0.000000
0.151900,-0.584000,0.723200,0.000000,-1.000000,0.000000
0.516200,0.265600,0.644300,1.000000,0.000000,0.000000
-0.321400,0.501500,-0.311200,0.000000,1.000000,0.000000
-0.365200,0.415000,0.398900,0.000000,1.000000,0.000000
0.336000,0.416000,0.363800,0.000000,1.000000,0.000000
-0.295100,0.416000,0.565400,0.000000,1.000000,0.000000
0.204500,-0.584000,-0.468900,0.000000,-1.000000,0.000000
0.517200,0.335700,0.381300,1.000000,0.000000,0.000000
-0.189900,-0.584000,-0.170900,0.000000,-1.000000,0.000000
-0.309500,-0.365600,0.372600,-1.000000,0.000000,0.000000
0.423700,-0.156600,-0.346200,0.000000,-1.000000,0.000000
0.336000,0.416000,0.460200,0.000000,1.000000,0.000000
0.248400,-0.234100,0.751000,0.000000,0.000000,1.000000
-0.511400,0.309400,-0.109500,-1.000000,0.000000,0.000000
-0.374000,-0.156600,-0.311200,0.000000,-1.000000,0.000000
0.362300,0.501500,-0.460200,0.000000,1.000000,0.000000
-0.511400,0.318200,0.284900,-1.000000,0.000000,0.000000
0.388600,-0.156600,-0.179700,0.000000,-1.000000,0.000000
0.467500,-0.156600,0.337500,0.000000,-1.000000,0.000000
-0.511400,0.204200,0.249800,-1.000000,0.000000,0.000000
0.213300,-0.426900,0.750000,0.000000,0.000000,1.000000
0.222100,-0.584000,0.688100,0.000000,-1.000000,0.000000
-0.093480,0.125300,0.751000,0.000000,0.000000,1.000000
-0.511400,-0.067520,0.390100,-1.000000,0.000000,0.000000
-0.233700,0.501500,-0.004374,0.000000,1.000000,0.000000
0.517200,0.020130,0.416400,1.000000,0.000000,0.000000
0.517200,0.283100,0.030700,1.000000,0.000000,0.000000
-0.014590,0.107800,0.751000,0.000000,0.000000,1.000000
-0.225000,-0.584000,-0.083260,0.000000,-1.000000,0.000000
-0.207400,-0.023690,0.751000,0.000000,0.000000,1.000000
0.414900,-0.156600,0.074530,0.000000,-1.000000,0.000000
0.029220,-0.584000,-0.302400,0.000000,-1.000000,0.000000
-0.312600,0.415000,0.460200,0.000000,1.000000,0.000000
-0.309500,-0.348000,0.416400,-1.000000,0.000000,0.000000
0.213300,0.501500,0.258600,0.000000,1.000000,0.000057
-0.189900,0.125300,0.751000,0.000000,0.000000,1.000000
-0.330200,-0.156600,-0.223500,-0.139300,-0.990200,0.000000
0.204500,0.134100,0.750000,0.000000,0.000000,1.000000
-0.309500,-0.321700,-0.109600,-1.000000,0.000000,0.000000
-0.511400,0.160400,-0.162100,-1.000000,0.000000,0.000000
-0.511400,0.151600,-0.232300,-1.000000,0.000000,0.000000
0.160700,-0.156600,-0.670500,0.000000,-1.000000,0.000000
0.283400,0.416000,0.416400,0.000000,1.000000,0.000000
-0.511400,0.309400,0.705700,-1.000000,0.000000,0.000000
0.517200,0.397100,0.486500,1.000000,0.000172,0.000000
0.160700,0.501500,-0.679300,0.000000,1.000000,0.000000
0.283400,-0.584000,-0.363800,0.000000,-1.000000,0.000000
-0.511400,0.221700,0.311200,-1.000000,0.000000,0.000000
-0.181100,0.416000,0.618000,0.000000,1.000000,0.000000
-0.511400,0.134100,-0.109500,-1.000000,0.000000,0.000000
0.257100,0.353200,0.750000,0.000000,0.000000,1.000000
0.517200,-0.041230,-0.109500,1.000000,0.000000,0.000000
0.507200,0.028880,-0.424200,0.977100,0.000000,-0.212600
0.514900,-0.156100,-0.004363,0.494900,-0.869000,0.000000
0.248400,0.501500,0.118300,0.000000,1.000000,0.000000
-0.108700,-0.172900,-0.620800,-0.311700,-0.341500,-0.886700
-0.312500,-0.321700,0.653000,-0.999600,0.000000,-0.028930
0.315300,-0.435700,0.705600,1.000000,0.000000,0.000000
0.441200,0.501500,-0.495200,0.000000,1.000000,-0.000057
-0.102000,0.186700,-0.834500,-0.123000,0.000000,-0.992400
0.208400,-0.579600,-0.565900,0.627400,-0.179800,-0.757700
-0.417800,0.475900,0.280900,0.000000,0.000000,1.000000
-0.102000,0.116600,-0.834500,-0.123000,0.000000,-0.992400
0.300800,-0.128900,-0.748000,0.577900,0.000000,-0.816100
0.510000,-0.156600,-0.223500,0.042950,-0.999100,0.000000
-0.475600,0.414600,-0.519800,-0.895500,0.000000,-0.445000
0.274900,-0.365600,-0.480800,0.893200,-0.031700,-0.448600
0.191600,-0.383100,-0.578000,0.579000,0.000000,-0.815300
0.256400,-0.400600,-0.512600,0.761900,0.000000,-0.647700
0.305900,-0.348000,-0.398000,0.985200,-0.009455,-0.171300
-0.286300,-0.584000,0.600500,0.000000,-1.000000,0.000000
-0.309500,-0.567200,0.127100,-0.999900,-0.014460,0.000000
-0.269200,0.131200,-0.766300,-0.578100,0.000006,-0.816000
0.516400,0.221700,0.381300,0.999100,-0.038020,0.019010
0.169500,0.501500,-0.468900,0.000000,1.000000,0.000000
-0.330200,-0.156600,0.021930,-0.139300,-0.990300,0.000000
0.516700,-0.067500,-0.223500,0.998800,0.044310,-0.022160
0.315300,-0.304200,0.170900,1.000000,0.000000,0.000000
-0.251300,-0.584000,0.065750,0.000000,-1.000000,0.000000
0.265900,-0.584000,0.723200,0.000000,-1.000000,0.000000
0.178200,-0.584000,0.398800,0.000000,-1.000000,0.000000
0.187000,0.500500,-0.293600,0.000000,1.000000,0.000000
0.315300,-0.470800,0.486500,1.000000,0.000000,0.000000
-0.312600,0.501500,-0.258600,0.000000,1.000000,0.000000
-0.431900,0.388300,-0.607600,-0.889400,0.000000,-0.457100
-0.225000,0.458400,0.280900,0.000000,0.000000,1.000000
-0.338900,0.265600,0.751000,0.000000,0.000000,1.000000
-0.058430,-0.584000,0.188500,0.000000,-1.000000,0.000000
0.107700,0.265600,-0.834500,0.123000,0.000000,-0.992400
-0.382700,-0.156600,0.276100,0.000000,-1.000000,0.000000
-0.417800,0.501500,0.092050,0.000000,1.000000,0.000000
-0.102300,-0.584000,-0.442700,0.000000,-1.000000,0.000000
-0.309500,-0.426900,-0.109600,-1.000000,0.000000,0.000000
-0.511400,0.116600,0.661800,-1.000000,0.000000,0.000000
-0.119800,0.416000,0.653100,0.000000,1.000000,0.000000
-0.128600,0.416000,0.442700,-0.012700,0.999600,0.025400
-0.128600,0.501500,-0.504000,0.000000,1.000000,0.000000
0.517200,-0.111400,0.390100,1.000000,0.000000,0.000000
-0.128600,0.501500,-0.731900,0.000000,1.000000,0.000000
0.517200,-0.102600,0.249800,1.000000,0.000000,0.000000
-0.511400,-0.102600,0.469000,-1.000000,0.000000,0.000000
0.517200,-0.102600,0.565400,1.000000,0.000000,0.000000
0.292200,0.501200,-0.407600,-0.006346,0.999100,0.041230
0.517200,0.011370,0.723200,1.000000,0.000000,0.000000
0.178200,-0.156600,-0.626700,0.000000,-1.000000,0.000000
0.502600,0.415000,0.539100,0.000127,1.000000,-0.000059
0.517200,0.248000,-0.293600,1.000000,0.000000,0.000000
-0.356500,0.501500,-0.398800,0.000000,1.000000,0.000000
-0.309500,-0.532100,-0.100800,-1.000000,0.000000,0.000000
-0.154900,-0.584000,0.390100,0.000000,-1.000000,0.000000
0.134400,-0.584000,-0.398800,0.000000,-1.000000,0.000000
0.467500,0.501500,0.214800,0.000000,1.000000,0.000000
-0.146100,0.501500,-0.775700,0.000000,1.000000,0.000000
-0.198700,-0.584000,-0.504000,0.000000,-1.000000,0.000000
-0.295100,-0.584000,-0.109600,-0.005487,-1.000000,0.000000
0.134400,-0.295400,0.751000,0.000000,0.000000,1.000000
0.125600,-0.584000,-0.460200,0.000000,-1.000000,0.000000
0.517200,0.248000,0.197200,1.000000,0.000000,0.000000
0.213300,-0.479500,0.750000,0.000000,0.000000,1.000000
-0.198700,-0.584000,0.696900,0.000000,-1.000000,0.000000
0.160700,-0.584000,-0.100800,0.000000,-1.000000,0.000000
-0.470400,0.283100,0.751000,0.000000,0.000000,1.000000
-0.511400,0.370800,0.363800,-1.000000,0.000000,0.000000
0.517200,0.300600,-0.293600,1.000000,0.000000,0.000000
0.081820,-0.584000,0.179700,0.000000,-1.000000,0.000000
-0.400300,0.501500,-0.381300,0.000000,1.000000,0.000000
0.314300,-0.339300,0.381300,1.000000,0.000000,0.000000
-0.049670,0.500500,0.241100,0.000000,1.000000,0.000000
-0.330200,0.501500,-0.504000,0.000000,1.000000,0.000000
0.414900,-0.156600,-0.547800,0.000000,-1.000000,0.000000
0.195800,-0.540900,0.750000,0.000000,0.000000,1.000000
-0.309500,-0.277900,-0.188400,-1.000000,0.000000,0.000000
-0.137300,0.416000,0.600500,0.000000,1.000000,0.000000
-0.309500,-0.321700,0.223500,-1.000000,0.000000,0.000000
0.315300,-0.321700,-0.065730,1.000000,0.000000,0.000000
-0.225000,0.501500,-0.267300,0.000000,1.000000,0.000000
0.517200,0.370800,-0.302400,1.000000,0.000000,0.000000
0.315300,-0.277900,-0.311200,1.000000,0.000000,0.000000
0.230800,-0.584000,0.004392,0.000000,-1.000000,0.000000
-0.417800,0.501500,-0.004374,0.000000,1.000000,0.000000
0.292200,-0.023690,0.751000,0.000000,0.000000,1.000000
0.055540,-0.242800,0.751000,0.000000,0.000000,1.000000
-0.067200,-0.584000,0.039450,0.000000,-1.000000,0.000000
-0.032140,0.501500,-0.179700,0.000000,1.000000,0.000000
0.314300,-0.497100,-0.241000,1.000000,-0.000076,0.000038
0.116900,0.501200,-0.618000,0.000000,0.999300,-0.037970
-0.511400,0.134100,0.030700,-1.000000,0.000000,0.000000
0.315300,-0.242800,-0.100800,1.000000,0.000000,0.000000
-0.309500,-0.444500,0.083290,-1.000000,0.000000,0.000000
0.283400,0.501500,0.039450,0.000000,1.000000,0.000000
0.064290,-0.584000,-0.092030,0.000000,-1.000000,0.000000
0.517200,0.274300,0.109600,1.000000,0.000000,0.000000
0.230800,0.501500,0.039450,0.000000,1.000000,0.000000
-0.032140,-0.584000,-0.591700,0.000000,-1.000000,0.000000
-0.511400,-0.006165,0.302400,-1.000000,0.000000,0.000000
0.029240,0.416000,0.688100,0.000000,1.000000,0.000000
-0.309500,-0.374300,0.039460,-1.000000,0.000000,0.000000
0.315300,-0.532100,0.013160,1.000000,0.000000,0.000000
0.517200,-0.041230,0.065770,1.000000,0.000000,0.000000
0.379900,-0.156600,-0.030660,0.000000,-1.000000,0.000000
0.309700,0.501500,-0.056970,0.000000,1.000000,0.000000
0.516200,-0.014940,-0.346200,1.000000,0.000000,0.000000
-0.049650,0.416000,0.346300,0.000000,1.000000,0.000000
-0.511400,0.037660,0.021940,-1.000000,0.000000,0.000000
0.315300,-0.216500,0.021930,1.000000,0.000000,0.000000
-0.137500,0.019390,-0.826300,-0.361300,-0.000021,-0.932500
0.046770,0.028900,0.750000,0.000000,0.000000,1.000000
-0.023370,0.501500,-0.661800,0.000000,1.000000,0.000000
-0.511400,0.037660,0.284900,-1.000000,0.000000,0.000000
-0.417800,-0.041230,0.751000,0.000000,0.000000,1.000000
-0.023360,-0.435700,0.750000,0.000000,0.000000,1.000000
0.517200,0.195400,-0.065720,1.000000,0.000000,0.000000
-0.040900,0.501500,-0.048200,0.003175,1.000000,0.003175
-0.058430,-0.584000,-0.460200,0.000000,-1.000000,0.000000
-0.309500,-0.304200,-0.021900,-1.000000,0.000000,0.000000
-0.511400,0.002600,0.469000,-1.000000,0.000000,0.000000
0.062120,-0.452500,-0.636700,0.124000,0.000000,-0.992300
0.002939,0.002598,0.750000,0.000000,0.000000,1.000000
-0.163600,-0.584000,-0.048200,0.000000,-1.000000,0.000000
0.002927,-0.584000,0.705600,0.000000,-1.000000,0.000000
0.046750,-0.584000,0.284900,0.000000,-1.000000,0.000000
0.020460,0.151600,0.750000,-0.012720,0.025340,0.999600
0.029220,0.500500,-0.319900,0.000000,1.000000,0.000000
0.073050,-0.584000,-0.372500,0.000000,-1.000000,0.000000
0.517200,0.274300,-0.118300,1.000000,0.000000,0.000000
-0.075960,-0.584000,0.407600,0.000000,-1.000000,0.000000
0.081810,0.500500,-0.539100,0.000000,0.999800,0.018950
0.037990,0.501500,-0.574100,-0.003175,1.000000,0.006402
0.318500,0.204200,0.750000,0.000057,-0.000057,1.000000
-0.093490,0.501500,-0.609200,0.000000,1.000000,0.000000
0.314300,-0.295400,0.696900,1.000000,-0.003144,0.006232
0.516200,-0.032470,-0.197200,1.000000,-0.000038,0.000019
0.516200,0.169100,0.653100,1.000000,0.000000,0.000000
0.423700,0.501400,-0.390100,-0.003163,1.000000,-0.003215
-0.075960,-0.584000,0.521600,0.000000,-1.000000,0.000000
0.314800,-0.540900,0.547800,0.999800,0.019010,0.000065
0.257100,0.501400,-0.714400,-0.012660,0.999900,-0.003134
-0.461600,-0.156600,0.425200,0.000000,-1.000000,0.000000
-0.356500,-0.156600,0.188500,0.000000,-1.000000,0.000000
0.195800,-0.584000,0.530300,0.000000,-1.000000,0.000000
-0.511400,0.107800,0.390100,-1.000000,0.000000,0.000000
-0.511400,0.151600,0.118400,-1.000000,0.000000,0.000000
0.517200,0.405800,-0.100800,1.000000,0.000000,0.000000
-0.067200,-0.584000,-0.048200,0.000000,-1.000000,0.000000
-0.093490,-0.584000,-0.179700,0.000000,-1.000000,0.000000
0.248400,-0.584000,0.276100,0.000000,-1.000000,0.000000
-0.084730,-0.584000,0.696900,0.000000,-1.000000,0.000000
-0.216200,-0.584000,-0.425100,0.000000,-1.000000,0.000000
-0.511400,0.353200,0.232300,-1.000000,0.000000,0.000000
